%YAML:1.0
table_background_depth_map: !!opencv-matrix
   rows: 32
   cols: 261
   dt: f
   data: [ 1539., 1539., 1.54569922e+03, 1.53901367e+03, 1532., 1532., 1.53333325e+03, 1539., 1539., 1539., 1539., 1539., 1539., 1539., 1539., 1.53874707e+03, 1.53200598e+03, 1.53787170e+03, 1.53200171e+03, 1.53200171e+03, 1.53200171e+03, 1532., 1532., 1532., 1.53462451e+03, 1532., 1.53421497e+03, 1.53428333e+03, 1539., 1539., 1539., 1539., 1539., 1539., 1539., 1539., 1.53878113e+03, 1.53258362e+03, 1.53898633e+03, 1.53210938e+03, 1532., 1532., 1532., 1532., 1532., 1.53811792e+03, 1539., 1539., 1539., 1539., 1.54463940e+03, 1.54380652e+03, 1.54250000e+03, 1539., 1539., 1539., 1539., 1.53855225e+03, 1539., 1539., 1539., 1539., 1539., 1539., 1539., 1.54554199e+03, 1.53900195e+03, 1539., 1.54250171e+03, 1.54266577e+03, 1.53654175e+03, 1.53898633e+03, 1.53712000e+03, 1.53889062e+03, 1.53603320e+03, 1532., 1532., 1532., 1532., 1532., 1532., 1532., 1532., 1532., 1532., 1532., 1532., 1532., 1.53243750e+03, 1.53812500e+03, 1.53900085e+03, 1.53902734e+03, 1.53902734e+03, 1.53914038e+03, 1539., 1539., 1539., 1.53592981e+03, 1.53200342e+03, 1532., 1532., 1.53200342e+03, 1.53200342e+03, 1.53853345e+03, 1.53853516e+03, 1539., 1539., 1539., 1.53995728e+03, 1.54183740e+03, 1.53996436e+03, 1539., 1.54249829e+03, 1.53996387e+03, 1546., 1.53908203e+03, 1539., 1.53941919e+03, 1546., 1.54610938e+03, 1546., 1.54641235e+03, 1546., 1.54991333e+03, 1.54624829e+03, 1.54624609e+03, 1546., 1546., 1546., 1546., 1546., 1546., 1546., 1.54597949e+03, 1546., 1546., 1.54599316e+03, 1.53897949e+03, 1532., 1.53730872e+03, 1.53725391e+03, 1.53829309e+03, 1532., 1.53176758e+03, 1.53198633e+03, 1.53190320e+03, 1.53061145e+03, 1.53110449e+03, 1532., 1532., 1.53221875e+03, 1532., 1532., 1.53025000e+03, 1532., 1.52862048e+03, 1.52500684e+03, 1.52500708e+03, 1.52588208e+03, 1.53191711e+03, 1532., 1532., 1.53894275e+03, 1.53890173e+03, 1.53894275e+03, 1.53894275e+03, 1.53871118e+03, 1532., 1532., 1.53199829e+03, 1.52505579e+03, 1525., 1525., 1525., 1525., 1525., 1525., 1525., 1525., 1525., 1.52521875e+03, 1532., 1532., 1.53202112e+03, 1.53432312e+03, 1.53897266e+03, 1.53897266e+03, 1539., 1539., 1539., 1539., 1.53897217e+03, 1.53344519e+03, 1532., 1532., 1.53197266e+03, 1.52633337e+03, 1.52588184e+03, 1525., 1.52501074e+03, 1.53199915e+03, 1532., 1532., 1.52850562e+03, 1532., 1532., 1.53200342e+03, 1532., 1539., 1539., 1532., 1532., 1532., 1532., 1532., 1532., 1532., 1.53201453e+03, 1539., 1539., 1539., 1539., 1539., 1539., 1539., 1539., 1539., 1539., 1539., 1539., 1539., 1.53724744e+03, 1.53649841e+03, 1532., 1.53276648e+03, 1.53276648e+03, 1539., 1539., 1539., 1539., 1539., 1539., 1539., 1539., 1539., 1539., 1539., 1539., 1539., 1539., 1539., 1539., 1539., 1539., 1539., 1539., 1.53987500e+03, 1.53987500e+03, 1539., 1539., 1539.,
       1539., 1539., 1.54569824e+03, 1.54044312e+03, 1532., 1.53202295e+03, 1.53200708e+03, 1539., 1.53878125e+03, 1539., 1539., 1539., 1539., 1539., 1539., 1.53524683e+03, 1.53200256e+03, 1.53349292e+03, 1.53200171e+03, 1532., 1.53200195e+03, 1532., 1532., 1532., 1.53462158e+03, 1532., 1.53550000e+03, 1539., 1539., 1539., 1539., 1539., 1539., 1539., 1539., 1539., 1.53605640e+03, 1.53211621e+03, 1.53611182e+03, 1532., 1532., 1532., 1532., 1532., 1532., 1532., 1539., 1539., 1539., 1539., 1539., 1539., 1539., 1539., 1539., 1539., 1539., 1.53551367e+03, 1.53899976e+03, 1539., 1539., 1539., 1539., 1539., 1539., 1.54422949e+03, 1.53905469e+03, 1539., 1539., 1539., 1.53555469e+03, 1.53558203e+03, 1.53550000e+03, 1.53602686e+03, 1532., 1532., 1532., 1532., 1532., 1532., 1532., 1532., 1532., 1532., 1532., 1532., 1532., 1532., 1.53265710e+03, 1.53457031e+03, 1539., 1539., 1539., 1539., 1.53812500e+03, 1539., 1.53746143e+03, 1.53211279e+03, 1532., 1532., 1532., 1532., 1.53200342e+03, 1.53847351e+03, 1.53409631e+03, 1.53852832e+03, 1.53850781e+03, 1539., 1539., 1.53995752e+03, 1.53995703e+03, 1539., 1.53996387e+03, 1.53996387e+03, 1.54599658e+03, 1.53908215e+03, 1539., 1.53900012e+03, 1.54599658e+03, 1546., 1546., 1546., 1546., 1546., 1546., 1546., 1546., 1.54597949e+03, 1546., 1546., 1.54624890e+03, 1546., 1546., 1.54597949e+03, 1546., 1546., 1546., 1539., 1.53380469e+03, 1.53733350e+03, 1.53725000e+03, 1.53730469e+03, 1.53132812e+03, 1.52855957e+03, 1.52850354e+03, 1.52500012e+03, 1.52521936e+03, 1.52522266e+03, 1532., 1532., 1.53221875e+03, 1532., 1532., 1532., 1.53025000e+03, 1525., 1525., 1525., 1525., 1.53157312e+03, 1.53158850e+03, 1.53191711e+03, 1.53649463e+03, 1.53868250e+03, 1.53674121e+03, 1.53649121e+03, 1.53638525e+03, 1.53199829e+03, 1.52987488e+03, 1.53187183e+03, 1525., 1525., 1525., 1525., 1525., 1525., 1525., 1525., 1525., 1525., 1525., 1532., 1532., 1.53508875e+03, 1.53869897e+03, 1.53897266e+03, 1.53897253e+03, 1539., 1539., 1.53897266e+03, 1.53897266e+03, 1.53282812e+03, 1532., 1532., 1.53197266e+03, 1.52633301e+03, 1525., 1525., 1525., 1525., 1.52830737e+03, 1.53186206e+03, 1532., 1.52501245e+03, 1532., 1532., 1532., 1.53201025e+03, 1539., 1539., 1532., 1532., 1.52835938e+03, 1532., 1532., 1532., 1532., 1532., 1539., 1539., 1539., 1539., 1539., 1539., 1539., 1539., 1539., 1539., 1539., 1539., 1.53724915e+03, 1.53720642e+03, 1.53200024e+03, 1532., 1532., 1532., 1532., 1.53809656e+03, 1.53812500e+03, 1.53812476e+03, 1539., 1539., 1539., 1539., 1539., 1539., 1539., 1539., 1.53855859e+03, 1539., 1539., 1539., 1539., 1539., 1539., 1539., 1.53987500e+03, 1539., 1539., 1539., 1539.,
       1539., 1539., 1.53912646e+03, 1.53901367e+03, 1532., 1.53201587e+03, 1532., 1539., 1.53875049e+03, 1.53200037e+03, 1.53264966e+03, 1539., 1539., 1539., 1.53899292e+03, 1.53243921e+03, 1532., 1.53200256e+03, 1532., 1532., 1.53515771e+03, 1532., 1532., 1.53200012e+03, 1539., 1.53250000e+03, 1539., 1539., 1539., 1539., 1539., 1539., 1539., 1539., 1539., 1539., 1.53561890e+03, 1.53658008e+03, 1.53593408e+03, 1532., 1532., 1532., 1532., 1532., 1532., 1532., 1.53366040e+03, 1539., 1539., 1539., 1539., 1539., 1539., 1539., 1539., 1.53833313e+03, 1539., 1532., 1.53718994e+03, 1539., 1539., 1539., 1539., 1539., 1539., 1.54597949e+03, 1.54255981e+03, 1539., 1539., 1539., 1.53555469e+03, 1.53550000e+03, 1532., 1532., 1532., 1532., 1532., 1532., 1532., 1532., 1532., 1532., 1532., 1532., 1532., 1532., 1532., 1532., 1532., 1532., 1532., 1.53235547e+03, 1532., 1.53762585e+03, 1532., 1.53744312e+03, 1532., 1.53567004e+03, 1532., 1532., 1532., 1.53200427e+03, 1.53234802e+03, 1.53848035e+03, 1.53584851e+03, 1.53223694e+03, 1.53222217e+03, 1.53660730e+03, 1539., 1539., 1539., 1539., 1539., 1.53987500e+03, 1.54578125e+03, 1.53900012e+03, 1539., 1539., 1.53900012e+03, 1.54556250e+03, 1.53900171e+03, 1.54556250e+03, 1.54467700e+03, 1.54468066e+03, 1546., 1546., 1.54247949e+03, 1.53924890e+03, 1.54592480e+03, 1.54510107e+03, 1546., 1.54598633e+03, 1546., 1.54242419e+03, 1546., 1546., 1546., 1.53897949e+03, 1.53205469e+03, 1.53730469e+03, 1532., 1532., 1.52505469e+03, 1525., 1525., 1525., 1525., 1525., 1.53111792e+03, 1532., 1532., 1532., 1532., 1532., 1532., 1525., 1525., 1525., 1.52500684e+03, 1.53179187e+03, 1.53191663e+03, 1.53197180e+03, 1.53638525e+03, 1.53671338e+03, 1.53571875e+03, 1.53550000e+03, 1532., 1.53199829e+03, 1.52850049e+03, 1.53011157e+03, 1525., 1.52506226e+03, 1.52637573e+03, 1525., 1525., 1525., 1525., 1525., 1525., 1525., 1525., 1532., 1532., 1.53872656e+03, 1539., 1539., 1.53787878e+03, 1539., 1539., 1.53720850e+03, 1.53720850e+03, 1532., 1532., 1532., 1.53197266e+03, 1.52587500e+03, 1525., 1525., 1525., 1525., 1.53180737e+03, 1.53158862e+03, 1.53199902e+03, 1.52588696e+03, 1.53200342e+03, 1.53199988e+03, 1.53200342e+03, 1.53711206e+03, 1539., 1539., 1.53595850e+03, 1532., 1532., 1.53354504e+03, 1.53201392e+03, 1532., 1.53200024e+03, 1.53206946e+03, 1539., 1539., 1539., 1539., 1539., 1539., 1539., 1539., 1539., 1539., 1539., 1.53899915e+03, 1.53671729e+03, 1.53200024e+03, 1532., 1532., 1532., 1532., 1532., 1532., 1.53260718e+03, 1532., 1.53266187e+03, 1.53637402e+03, 1539., 1539., 1.53369360e+03, 1.53358423e+03, 1539., 1539., 1.53899597e+03, 1539., 1539., 1539., 1539., 1539., 1539., 1539., 1539., 1539., 1539., 1539., 1.53287500e+03,
       1539., 1539., 1.53910938e+03, 1.53901367e+03, 1532., 1.53202368e+03, 1532., 1539., 1.53202161e+03, 1532., 1532., 1.53261523e+03, 1.53352417e+03, 1.53349280e+03, 1.53244348e+03, 1.53243921e+03, 1.53200171e+03, 1.53333228e+03, 1.53200171e+03, 1.53878125e+03, 1539., 1539., 1539., 1539., 1539., 1539., 1539., 1539., 1.53218579e+03, 1539., 1539., 1539., 1539., 1539., 1539., 1539., 1.53657935e+03, 1532., 1532., 1532., 1532., 1532., 1532., 1532., 1532., 1532., 1.53366040e+03, 1539., 1539., 1539., 1539., 1539., 1539., 1.53724487e+03, 1.53899658e+03, 1532., 1.53724487e+03, 1532., 1.53718994e+03, 1539., 1539., 1539., 1539., 1539., 1539., 1.54379199e+03, 1.53905469e+03, 1539., 1.53905469e+03, 1.53905469e+03, 1.53569141e+03, 1532., 1532., 1532., 1532., 1532., 1532., 1532., 1532., 1532., 1532., 1532., 1532., 1532., 1532., 1532., 1532., 1.53112500e+03, 1532., 1532., 1532., 1532., 1532., 1532., 1532., 1532., 1532., 1532., 1532., 1532., 1532., 1.53200342e+03, 1.53320947e+03, 1.53677832e+03, 1.53222241e+03, 1.53221875e+03, 1532., 1532., 1532., 1532., 1.53691809e+03, 1.53702771e+03, 1539., 1539., 1539., 1539., 1539., 1539., 1539., 1.53911121e+03, 1539., 1.53939832e+03, 1.54292700e+03, 1.54468066e+03, 1546., 1546., 1.54116687e+03, 1.54105408e+03, 1.54466687e+03, 1.54280396e+03, 1.54510449e+03, 1.54597949e+03, 1.53938904e+03, 1.53922302e+03, 1.54595215e+03, 1546., 1.54554187e+03, 1.53504126e+03, 1532., 1532., 1.53176758e+03, 1.53176587e+03, 1525., 1525., 1525., 1525., 1525., 1525., 1.52521875e+03, 1.52697009e+03, 1532., 1532., 1.52980994e+03, 1525., 1.52943665e+03, 1525., 1525., 1525., 1.52500684e+03, 1.53191711e+03, 1.53197266e+03, 1532., 1.53638525e+03, 1.53660400e+03, 1532., 1532., 1532., 1.52850049e+03, 1525., 1525., 1525., 1.52850037e+03, 1.53030884e+03, 1.52505505e+03, 1.52500037e+03, 1525., 1525., 1525., 1525., 1525., 1525., 1.53194531e+03, 1532., 1.53464380e+03, 1.53410400e+03, 1539., 1.53410400e+03, 1539., 1539., 1.53222046e+03, 1.53200171e+03, 1532., 1532., 1.53197180e+03, 1.52823987e+03, 1525., 1525., 1525., 1525., 1525., 1.53186206e+03, 1.53186157e+03, 1.53199902e+03, 1.52499988e+03, 1.53199902e+03, 1.53199902e+03, 1.53199988e+03, 1532., 1.53889050e+03, 1539., 1.53595825e+03, 1532., 1532., 1.53550000e+03, 1.53538721e+03, 1532., 1.53205469e+03, 1.53205469e+03, 1539., 1539., 1539., 1.53855908e+03, 1.53764233e+03, 1539., 1.53853516e+03, 1.53856250e+03, 1.53852148e+03, 1.53677063e+03, 1.53678430e+03, 1.53679797e+03, 1.53200024e+03, 1.53210962e+03, 1532., 1532., 1532., 1.53199915e+03, 1532., 1532., 1.53243970e+03, 1532., 1.53243750e+03, 1.53205469e+03, 1.53899890e+03, 1.53899890e+03, 1.53549878e+03, 1.53355859e+03, 1.53899976e+03, 1.53899316e+03, 1.53740320e+03, 1.53899976e+03, 1.53894165e+03, 1539., 1539., 1539., 1539., 1539., 1539., 1539., 1539., 1.53202136e+03, 1532.,
       1539., 1539., 1.53911536e+03, 1.53900342e+03, 1532., 1.53856250e+03, 1.53200256e+03, 1539., 1.53737598e+03, 1532., 1532., 1532., 1532., 1532., 1532., 1532., 1532., 1532., 1532., 1.53331970e+03, 1539., 1.53244727e+03, 1.53526367e+03, 1.53200781e+03, 1.53513037e+03, 1.53425012e+03, 1.53877783e+03, 1.53393567e+03, 1532., 1539., 1539., 1539., 1539., 1539., 1539., 1539., 1.53558545e+03, 1532., 1532., 1532., 1532., 1532., 1532., 1532., 1532., 1532., 1532., 1539., 1.53289478e+03, 1.53724976e+03, 1.53724976e+03, 1.53724976e+03, 1.53724829e+03, 1532., 1.53723792e+03, 1532., 1.53721692e+03, 1532., 1539., 1539., 1539., 1539., 1539., 1539., 1539., 1.53910938e+03, 1539., 1539., 1539., 1.53905469e+03, 1.53558203e+03, 1532., 1532., 1532., 1532., 1532., 1532., 1532., 1532., 1532., 1532., 1532., 1532., 1532., 1532., 1532., 1.52850000e+03, 1.52760449e+03, 1532., 1532., 1532., 1532., 1532., 1532., 1532., 1532., 1532., 1532., 1532., 1532., 1532., 1.53200342e+03, 1.53233435e+03, 1.53721582e+03, 1.53222241e+03, 1532., 1532., 1532., 1532., 1532., 1532., 1532., 1.53200684e+03, 1.53338855e+03, 1539., 1.53899951e+03, 1.53241919e+03, 1.53768665e+03, 1539., 1539., 1539., 1539., 1539., 1.53941345e+03, 1.54599316e+03, 1.54599316e+03, 1.53941321e+03, 1.53902991e+03, 1.53900195e+03, 1.53900110e+03, 1.54105737e+03, 1.54116650e+03, 1.53927429e+03, 1539., 1.53922327e+03, 1546., 1.54598621e+03, 1.53854187e+03, 1.53205469e+03, 1532., 1.53198462e+03, 1.53132800e+03, 1525., 1525., 1525., 1525., 1525., 1525., 1525., 1.52521875e+03, 1.53099133e+03, 1.52531494e+03, 1525., 1525., 1525., 1525., 1525., 1525., 1.52994275e+03, 1532., 1532., 1.53550684e+03, 1.53671338e+03, 1.53550000e+03, 1532., 1.53194446e+03, 1.53135474e+03, 1525., 1525., 1525., 1525., 1.52500037e+03, 1.53025598e+03, 1.52855505e+03, 1.52925232e+03, 1525., 1525., 1525., 1.52502905e+03, 1525., 1525., 1532., 1532., 1.53287671e+03, 1.53245972e+03, 1539., 1532., 1539., 1.53899976e+03, 1532., 1532., 1532., 1.53197266e+03, 1.53197180e+03, 1.53174023e+03, 1.52500684e+03, 1525., 1525., 1525., 1525., 1.53199878e+03, 1.52838892e+03, 1.52838965e+03, 1.52499988e+03, 1.52815710e+03, 1.52728198e+03, 1.52838953e+03, 1.53189038e+03, 1532., 1.53229114e+03, 1532., 1532., 1.53223242e+03, 1539., 1539., 1.53363721e+03, 1.53363721e+03, 1.53200684e+03, 1539., 1.53899658e+03, 1532., 1532., 1532., 1.53375684e+03, 1532., 1532., 1532., 1532., 1532., 1532., 1532., 1.53199915e+03, 1.53016711e+03, 1.53005090e+03, 1.52917590e+03, 1.52543750e+03, 1.52544263e+03, 1532., 1532., 1532., 1532., 1.53205469e+03, 1539., 1539., 1539., 1539., 1539., 1539., 1539., 1539., 1.53823438e+03, 1539., 1539., 1539., 1539., 1.53705859e+03, 1.53539062e+03, 1532., 1.53463867e+03, 1532., 1532.,
       1539., 1539., 1.54550073e+03, 1.53900342e+03, 1.53497314e+03, 1.53853491e+03, 1.53561914e+03, 1.53834351e+03, 1.53211023e+03, 1532., 1532., 1532., 1532., 1532., 1532., 1532., 1532., 1532., 1532., 1532., 1539., 1.53200696e+03, 1.53200696e+03, 1532., 1532., 1532., 1.53200012e+03, 1532., 1532., 1532., 1532., 1532., 1532., 1.53677661e+03, 1532., 1532., 1532., 1532., 1532., 1532., 1532., 1532., 1532., 1532., 1532., 1532., 1532., 1532., 1532., 1532., 1532., 1532., 1532., 1532., 1532., 1532., 1532., 1532., 1532., 1.53366113e+03, 1532., 1539., 1.53886072e+03, 1539., 1539., 1539., 1539., 1539., 1539., 1539., 1532., 1532., 1532., 1532., 1.53100110e+03, 1.52508228e+03, 1.52505493e+03, 1525., 1.52502759e+03, 1525., 1.52502759e+03, 1.52706616e+03, 1.53112500e+03, 1532., 1532., 1.52705481e+03, 1.52530469e+03, 1.52760071e+03, 1532., 1532., 1532., 1532., 1532., 1532., 1532., 1532., 1532., 1532., 1532., 1532., 1532., 1532., 1532., 1532., 1532., 1532., 1532., 1532., 1532., 1532., 1532., 1532., 1532., 1532., 1532., 1532., 1.53205481e+03, 1532., 1.53766577e+03, 1.53768066e+03, 1.53582996e+03, 1.53200183e+03, 1.53563989e+03, 1.53899316e+03, 1.53855566e+03, 1.53899316e+03, 1.53416663e+03, 1.53377991e+03, 1.53399927e+03, 1.53416699e+03, 1539., 1539., 1539., 1.53899316e+03, 1539., 1.54247729e+03, 1.54029126e+03, 1.53329126e+03, 1.53216748e+03, 1.53205469e+03, 1532., 1.53199829e+03, 1.52505469e+03, 1525., 1525., 1525., 1525., 1525., 1525., 1525., 1.52871875e+03, 1.52521875e+03, 1525., 1525., 1525., 1525., 1.52850684e+03, 1.52675684e+03, 1.53191711e+03, 1532., 1.53221875e+03, 1.53221875e+03, 1.53221875e+03, 1532., 1.53019275e+03, 1.52521875e+03, 1525., 1525., 1525., 1525., 1525., 1.52500037e+03, 1.53034485e+03, 1.52859314e+03, 1.52926477e+03, 1.52524646e+03, 1.52877295e+03, 1.52502734e+03, 1.53112451e+03, 1.53095020e+03, 1.53189014e+03, 1532., 1532., 1.53332788e+03, 1.53200171e+03, 1.53897180e+03, 1532., 1.53222046e+03, 1532., 1532., 1532., 1532., 1.52856494e+03, 1.52550244e+03, 1.52500342e+03, 1525., 1525., 1525., 1525., 1525., 1.52807104e+03, 1.52829321e+03, 1.52838953e+03, 1.52199915e+03, 1.52718750e+03, 1525., 1525., 1.52531787e+03, 1.53199988e+03, 1532., 1532., 1532., 1532., 1.53374658e+03, 1539., 1.53363489e+03, 1.53275903e+03, 1532., 1.53429028e+03, 1.53410144e+03, 1532., 1532., 1532., 1532., 1532., 1532., 1.53152148e+03, 1532., 1532., 1532., 1.53197266e+03, 1.53016541e+03, 1.53180176e+03, 1.53005090e+03, 1.52543774e+03, 1525., 1525., 1.52903882e+03, 1532., 1.53101453e+03, 1532., 1532., 1539., 1539., 1539., 1539., 1539., 1539., 1.53899976e+03, 1.53899976e+03, 1532., 1.53831616e+03, 1539., 1539., 1539., 1.53662085e+03, 1.53314331e+03, 1532., 1532., 1532., 1.53194189e+03,
       1539., 1.53900342e+03, 1.53900342e+03, 1539., 1532., 1532., 1532., 1532., 1532., 1532., 1532., 1532., 1532., 1532., 1532., 1532., 1532., 1532., 1532., 1532., 1.53334717e+03, 1532., 1532., 1532., 1532., 1532., 1532., 1532., 1532., 1532., 1532., 1532., 1532., 1532., 1532., 1532., 1532., 1532., 1532., 1532., 1532., 1532., 1532., 1532., 1532., 1532., 1532., 1532., 1532., 1532., 1532., 1532., 1532., 1532., 1532., 1532., 1532., 1532., 1532., 1532., 1532., 1532., 1532., 1532., 1.53355127e+03, 1539., 1539., 1539., 1539., 1539., 1532., 1532., 1532., 1.52925098e+03, 1525., 1525., 1525., 1525., 1525., 1525., 1525., 1.52705151e+03, 1.53110620e+03, 1.52837695e+03, 1.52744714e+03, 1525., 1525., 1525., 1532., 1532., 1532., 1532., 1532., 1532., 1532., 1532., 1532., 1532., 1532., 1532., 1532., 1532., 1532., 1.53287610e+03, 1532., 1532., 1532., 1532., 1532., 1532., 1532., 1532., 1532., 1532., 1532., 1532., 1532., 1532., 1532., 1532., 1532., 1532., 1532., 1532., 1.53200171e+03, 1.53200171e+03, 1532., 1532., 1532., 1532., 1532., 1532., 1532., 1532., 1.53309399e+03, 1.53921875e+03, 1.54026050e+03, 1.53326050e+03, 1.53292969e+03, 1.53200085e+03, 1532., 1532., 1.52641638e+03, 1525., 1525., 1525., 1525., 1525., 1525., 1525., 1.52521875e+03, 1.52522217e+03, 1525., 1525., 1525., 1525., 1.53052344e+03, 1.53043506e+03, 1.53191541e+03, 1532., 1532., 1532., 1532., 1.53199915e+03, 1.52521875e+03, 1.52521875e+03, 1525., 1525., 1525., 1525., 1525., 1525., 1.53050891e+03, 1.53056323e+03, 1.53101270e+03, 1.52876880e+03, 1.53112500e+03, 1.52524609e+03, 1532., 1.53199951e+03, 1532., 1532., 1.53375256e+03, 1.53464038e+03, 1532., 1.53858557e+03, 1532., 1532., 1532., 1532., 1532., 1532., 1532., 1532., 1532., 1525., 1525., 1525., 1525., 1525., 1525., 1525., 1525., 1.52162939e+03, 1.52499988e+03, 1.52499988e+03, 1525., 1525., 1.52509937e+03, 1532., 1532., 1532., 1532., 1.53550000e+03, 1539., 1.53341968e+03, 1.53691968e+03, 1.53201367e+03, 1.53202051e+03, 1532., 1532., 1532., 1.53153516e+03, 1532., 1.53042407e+03, 1.53064624e+03, 1.52686035e+03, 1.53130273e+03, 1.53152148e+03, 1.53135742e+03, 1.52676147e+03, 1.52676050e+03, 1.52697327e+03, 1.52543860e+03, 1525., 1525., 1.52500012e+03, 1532., 1532., 1532., 1532., 1532., 1539., 1539., 1539., 1539., 1.53374707e+03, 1.53878088e+03, 1.53735938e+03, 1.53823438e+03, 1532., 1.53550000e+03, 1.53831445e+03, 1.53878125e+03, 1539., 1.53332617e+03, 1.53202197e+03, 1532., 1532., 1532., 1.53150439e+03,
       1539., 1539., 1539., 1539., 1532., 1532., 1532., 1532., 1532., 1532., 1532., 1532., 1532., 1532., 1532., 1532., 1532., 1532., 1532., 1532., 1532., 1532., 1532., 1532., 1532., 1532., 1532., 1532., 1532., 1532., 1532., 1532., 1532., 1.53221875e+03, 1.53577930e+03, 1.53200024e+03, 1532., 1532., 1532., 1532., 1532., 1532., 1.53189062e+03, 1.52830847e+03, 1532., 1532., 1532., 1532., 1532., 1532., 1532., 1532., 1532., 1532., 1532., 1532., 1532., 1532., 1532., 1532., 1532., 1.53333386e+03, 1532., 1.53353589e+03, 1539., 1539., 1539., 1539., 1.53899976e+03, 1539., 1532., 1532., 1.53199976e+03, 1.52505981e+03, 1525., 1525., 1525., 1525., 1525., 1525., 1525., 1525., 1.52527344e+03, 1525., 1525., 1525., 1525., 1525., 1.52661328e+03, 1.52848523e+03, 1532., 1532., 1532., 1532., 1532., 1532., 1532., 1532., 1532., 1532., 1532., 1532., 1532., 1.53288867e+03, 1532., 1532., 1532., 1.52625537e+03, 1.52512988e+03, 1.52504785e+03, 1.52502051e+03, 1532., 1532., 1532., 1532., 1532., 1532., 1532., 1532., 1532., 1532., 1532., 1532., 1532., 1532., 1532., 1532., 1532., 1532., 1532., 1532., 1532., 1532., 1532., 1532., 1539., 1539., 1532., 1532., 1532., 1532., 1532., 1.52550049e+03, 1525., 1525., 1525., 1525., 1525., 1525., 1525., 1525., 1525., 1525., 1525., 1525., 1525., 1.53025049e+03, 1.52675049e+03, 1.53025732e+03, 1.53197266e+03, 1532., 1532., 1532., 1.52521899e+03, 1525., 1525., 1525., 1525., 1525., 1525., 1525., 1.53025525e+03, 1532., 1532., 1.53199915e+03, 1532., 1532., 1.53112500e+03, 1532., 1532., 1532., 1532., 1532., 1.53222046e+03, 1532., 1.53200171e+03, 1532., 1532., 1532., 1532., 1532., 1.53201025e+03, 1532., 1.53550684e+03, 1532., 1532., 1525., 1525., 1525., 1525., 1525., 1525., 1.52631250e+03, 1.52162646e+03, 1.52499988e+03, 1.52499988e+03, 1.52499988e+03, 1525., 1525., 1532., 1532., 1532., 1532., 1539., 1539., 1.53691870e+03, 1.53601636e+03, 1532., 1532., 1532., 1532., 1.53032544e+03, 1.53054578e+03, 1532., 1.53042200e+03, 1.52692712e+03, 1.52510938e+03, 1.53152148e+03, 1.52675366e+03, 1.52675366e+03, 1525., 1.52500342e+03, 1.52565906e+03, 1.52543860e+03, 1.52565735e+03, 1.52521875e+03, 1.53091260e+03, 1532., 1532., 1532., 1532., 1532., 1.53899915e+03, 1.53549878e+03, 1.53549963e+03, 1.53355859e+03, 1532., 1532., 1532., 1532., 1.53199976e+03, 1532., 1.53550000e+03, 1.53872632e+03, 1.53869214e+03, 1.53200012e+03, 1532., 1532., 1532., 1532., 1.52679236e+03,
       1539., 1539., 1539., 1539., 1532., 1532., 1532., 1532., 1532., 1532., 1532., 1532., 1532., 1532., 1532., 1532., 1532., 1532., 1532., 1532., 1532., 1532., 1532., 1532., 1532., 1532., 1532., 1532., 1532., 1532., 1532., 1532., 1532., 1532., 1.53577930e+03, 1.53588867e+03, 1532., 1532., 1532., 1532., 1532., 1532., 1532., 1.53189062e+03, 1532., 1532., 1532., 1532., 1532., 1532., 1532., 1532., 1532., 1532., 1532., 1532., 1532., 1532., 1532., 1532., 1532., 1532., 1532., 1532., 1.53891064e+03, 1.53897266e+03, 1539., 1.53262769e+03, 1.53722144e+03, 1539., 1.53024890e+03, 1.52584644e+03, 1525., 1525., 1525., 1525., 1525., 1525., 1525., 1525., 1525., 1525., 1525., 1525., 1525., 1525., 1525., 1525., 1525., 1.53023608e+03, 1532., 1532., 1532., 1532., 1532., 1532., 1532., 1532., 1532., 1532., 1532., 1532., 1532., 1532., 1532., 1532., 1.52600488e+03, 1.52512988e+03, 1.52511621e+03, 1.52503418e+03, 1525., 1.53025000e+03, 1532., 1532., 1532., 1532., 1532., 1532., 1532., 1532., 1532., 1532., 1532., 1532., 1.53193848e+03, 1.53199316e+03, 1.52975061e+03, 1.53155566e+03, 1.52614160e+03, 1.52838379e+03, 1.53137781e+03, 1532., 1532., 1532., 1532., 1.53355188e+03, 1539., 1532., 1532., 1532., 1532., 1.52642017e+03, 1.52549304e+03, 1525., 1525., 1525., 1525., 1525., 1525., 1525., 1525., 1525., 1525., 1525., 1525., 1525., 1.53046875e+03, 1525., 1.52675049e+03, 1.53046924e+03, 1532., 1532., 1.52523242e+03, 1525., 1525., 1525., 1525., 1525., 1525., 1525., 1525., 1.53026038e+03, 1532., 1532., 1532., 1532., 1532., 1.53112500e+03, 1532., 1532., 1.53199927e+03, 1532., 1.53199988e+03, 1.53199951e+03, 1.53180786e+03, 1532., 1.52828979e+03, 1532., 1532., 1532., 1532., 1532., 1532., 1.53616736e+03, 1532., 1532., 1.52873157e+03, 1525., 1525., 1525., 1525., 1525., 1.52543750e+03, 1.52012500e+03, 1.52189307e+03, 1.52189307e+03, 1.52189307e+03, 1.52499988e+03, 1525., 1.52948425e+03, 1532., 1532., 1532., 1.53556152e+03, 1.53725000e+03, 1.53205469e+03, 1532., 1532., 1532., 1532., 1532., 1.53197046e+03, 1.53096790e+03, 1.53064233e+03, 1.52692090e+03, 1525., 1525., 1.52676111e+03, 1525., 1525., 1525., 1525., 1525., 1525., 1525., 1525., 1525., 1.52896777e+03, 1532., 1.53100830e+03, 1532., 1532., 1532., 1532., 1.53243750e+03, 1532., 1532., 1532., 1.53199976e+03, 1532., 1.53126831e+03, 1532., 1532., 1532., 1.53550098e+03, 1.53200085e+03, 1532., 1532., 1532., 1532., 1.52718408e+03,
       1539., 1539., 1539., 1539., 1532., 1532., 1532., 1532., 1532., 1532., 1532., 1532., 1532., 1532., 1532., 1532., 1532., 1532., 1532., 1532., 1532., 1532., 1532., 1532., 1532., 1532., 1532., 1532., 1532., 1532., 1532., 1532., 1532., 1532., 1532., 1532., 1532., 1532., 1532., 1532., 1532., 1532., 1532., 1532., 1532., 1532., 1532., 1532., 1532., 1532., 1532., 1532., 1532., 1532., 1532., 1532., 1532., 1532., 1532., 1532., 1532., 1532., 1532., 1532., 1.53200171e+03, 1.53694067e+03, 1.53607251e+03, 1.53200342e+03, 1.53250415e+03, 1.53812390e+03, 1.52587378e+03, 1.52500342e+03, 1525., 1525., 1525., 1525., 1525., 1525., 1525., 1525., 1525., 1525., 1525., 1525., 1525., 1525., 1525., 1525., 1525., 1525., 1532., 1532., 1532., 1532., 1532., 1532., 1532., 1532., 1532., 1532., 1532., 1532., 1532., 1532., 1532., 1532., 1.52500684e+03, 1.52502051e+03, 1.52513672e+03, 1.52505469e+03, 1525., 1.53178113e+03, 1532., 1532., 1532., 1532., 1532., 1532., 1532., 1532., 1532., 1532., 1532., 1532., 1532., 1532., 1.52591772e+03, 1.52591602e+03, 1.52587500e+03, 1.52587500e+03, 1525., 1.53189062e+03, 1532., 1532., 1532., 1.53883337e+03, 1539., 1532., 1.53333704e+03, 1532., 1532., 1532., 1.53173853e+03, 1525., 1525., 1525., 1525., 1525., 1525., 1525., 1525., 1525., 1525., 1525., 1525., 1525., 1525., 1525., 1525., 1525., 1.53092896e+03, 1525., 1525., 1525., 1525., 1525., 1525., 1525., 1525., 1525., 1525., 1.52501196e+03, 1.53041248e+03, 1.53056287e+03, 1.53199915e+03, 1532., 1532., 1.53068701e+03, 1532., 1532., 1.53199951e+03, 1.53199951e+03, 1.53199927e+03, 1.52836255e+03, 1.52830786e+03, 1.53186255e+03, 1525., 1.52522217e+03, 1532., 1532., 1532., 1532., 1532., 1532., 1532., 1532., 1.52856714e+03, 1.52500513e+03, 1525., 1525., 1525., 1525., 1525., 1519., 1.52167627e+03, 1519., 1.51900293e+03, 1.51939807e+03, 1.52499988e+03, 1525., 1.52856152e+03, 1.52901343e+03, 1.53013965e+03, 1532., 1.53557544e+03, 1532., 1532., 1.53164148e+03, 1.52895801e+03, 1525., 1525., 1525., 1525., 1525., 1525., 1525., 1525., 1.52675427e+03, 1525., 1525., 1525., 1525., 1525., 1525., 1525., 1525., 1.52543750e+03, 1.52896777e+03, 1.53199316e+03, 1.52896667e+03, 1532., 1532., 1532., 1532., 1532., 1532., 1532., 1532., 1532., 1.53199976e+03, 1.52686108e+03, 1.53199976e+03, 1532., 1.53243750e+03, 1.53595227e+03, 1.53243750e+03, 1532., 1532., 1532., 1.53112158e+03, 1.52679858e+03,
       1539., 1539., 1539., 1539., 1532., 1532., 1532., 1532., 1532., 1532., 1532., 1532., 1532., 1532., 1532., 1532., 1532., 1532., 1532., 1532., 1532., 1532., 1532., 1532., 1532., 1532., 1.53155566e+03, 1532., 1532., 1532., 1532., 1532., 1532., 1532., 1532., 1532., 1532., 1532., 1532., 1532., 1532., 1532., 1532., 1532., 1532., 1532., 1532., 1532., 1532., 1532., 1532., 1532., 1532., 1532., 1532., 1532., 1532., 1532., 1532., 1532., 1.52850000e+03, 1.52850000e+03, 1532., 1532., 1532., 1532., 1532., 1532., 1532., 1.53239478e+03, 1.52500342e+03, 1525., 1525., 1525., 1525., 1525., 1525., 1525., 1525., 1525., 1525., 1525., 1525., 1525., 1525., 1525., 1525., 1525., 1525., 1.52850000e+03, 1532., 1.53199976e+03, 1532., 1532., 1532., 1532., 1532., 1532., 1532., 1532., 1532., 1532., 1532., 1532., 1532., 1.52516113e+03, 1525., 1525., 1.52521606e+03, 1.52609106e+03, 1.52509595e+03, 1532., 1532., 1532., 1532., 1532., 1532., 1532., 1532., 1532., 1532., 1532., 1532., 1532., 1532., 1.52591602e+03, 1.52591602e+03, 1.52587500e+03, 1525., 1525., 1525., 1525., 1525., 1532., 1532., 1.53221875e+03, 1.53883508e+03, 1.53189062e+03, 1532., 1532., 1532., 1.52500012e+03, 1525., 1525., 1525., 1525., 1525., 1525., 1525., 1525., 1525., 1525., 1525., 1525., 1525., 1525., 1525., 1525., 1525., 1525., 1525., 1525., 1525., 1525., 1525., 1525., 1525., 1525., 1525., 1525., 1525., 1525., 1525., 1525., 1525., 1.52850342e+03, 1.52500342e+03, 1.52500342e+03, 1.52718689e+03, 1.52680981e+03, 1.52500854e+03, 1.52698169e+03, 1.52699548e+03, 1.52522144e+03, 1525., 1525., 1525., 1525., 1.52522302e+03, 1.53194531e+03, 1532., 1532., 1532., 1532., 1532., 1532., 1525., 1525., 1525., 1525., 1525., 1.52500085e+03, 1.52500085e+03, 1519., 1519., 1519., 1519., 1519., 1519., 1.52204712e+03, 1525., 1525., 1525., 1525., 1.53199829e+03, 1.52988806e+03, 1.52893750e+03, 1525., 1525., 1525., 1525., 1525., 1525., 1525., 1525., 1525., 1525., 1.52675427e+03, 1525., 1525., 1.52478906e+03, 1525., 1525., 1525., 1525., 1525., 1525., 1.52546655e+03, 1.52634192e+03, 1525., 1532., 1.53177441e+03, 1532., 1532., 1532., 1532., 1.53176758e+03, 1.53176758e+03, 1.52501025e+03, 1.53124683e+03, 1525., 1525., 1.53178125e+03, 1532., 1532., 1.53243750e+03, 1532., 1532., 1532., 1532., 1532.,
       1539., 1539., 1539., 1539., 1532., 1532., 1532., 1532., 1532., 1532., 1532., 1532., 1532., 1.53178076e+03, 1.53132788e+03, 1.53189014e+03, 1.53199988e+03, 1.53199988e+03, 1.53199988e+03, 1532., 1532., 1532., 1532., 1532., 1532., 1532., 1532., 1532., 1532., 1532., 1532., 1532., 1532., 1532., 1532., 1532., 1532., 1.53199988e+03, 1532., 1532., 1532., 1.52833496e+03, 1.53199988e+03, 1.52983545e+03, 1532., 1532., 1532., 1532., 1532., 1532., 1532., 1532., 1532., 1532., 1532., 1532., 1532., 1532., 1532., 1532., 1.52837012e+03, 1.52768237e+03, 1.53197266e+03, 1532., 1532., 1532., 1532., 1532., 1532., 1532., 1525., 1525., 1525., 1525., 1525., 1525., 1525., 1525., 1525., 1525., 1525., 1525., 1525., 1525., 1525., 1525., 1525., 1525., 1525., 1.52850000e+03, 1.53177502e+03, 1532., 1532., 1532., 1532., 1.53194507e+03, 1.53194507e+03, 1.53194507e+03, 1532., 1532., 1.53182922e+03, 1.52744739e+03, 1.52504102e+03, 1.53194531e+03, 1.52723242e+03, 1.52501709e+03, 1525., 1525., 1.53199902e+03, 1532., 1.53188794e+03, 1532., 1532., 1532., 1532., 1.53199304e+03, 1532., 1532., 1532., 1532., 1532., 1.52631030e+03, 1.53199829e+03, 1532., 1.52624878e+03, 1.52587500e+03, 1525., 1525., 1525., 1525., 1525., 1525., 1525., 1532., 1532., 1.53880237e+03, 1539., 1532., 1.53201379e+03, 1532., 1.52675867e+03, 1525., 1525., 1525., 1525., 1525., 1525., 1525., 1525., 1525., 1525., 1525., 1525., 1525., 1525., 1525., 1525., 1525., 1525., 1525., 1525., 1525., 1525., 1525., 1525., 1525., 1525., 1525., 1525., 1525., 1525., 1525., 1525., 1525., 1525., 1525., 1525., 1525., 1525., 1525., 1525., 1.52500085e+03, 1.52787036e+03, 1.52521973e+03, 1.52500085e+03, 1525., 1525., 1525., 1525., 1525., 1.52853979e+03, 1532., 1.52500342e+03, 1532., 1.52882812e+03, 1532., 1525., 1525., 1525., 1525., 1525., 1525., 1525., 1519., 1519., 1519., 1519., 1519., 1519., 1519., 1519., 1519., 1519., 1.52355298e+03, 1525., 1525., 1.52850000e+03, 1525., 1.52328723e+03, 1.52314270e+03, 1.52497620e+03, 1.52478870e+03, 1.52497656e+03, 1525., 1525., 1525., 1525., 1525., 1525., 1.52169385e+03, 1.52050952e+03, 1.52488281e+03, 1.52106641e+03, 1.52495312e+03, 1525., 1525., 1.52499414e+03, 1525., 1525., 1525., 1.53002429e+03, 1.52500220e+03, 1.53123438e+03, 1532., 1532., 1532., 1.53120605e+03, 1.53134375e+03, 1.52501025e+03, 1.52500342e+03, 1525., 1525., 1.52896497e+03, 1.53178125e+03, 1532., 1532., 1532., 1532., 1532., 1532., 1532.,
       1539., 1539., 1539., 1539., 1532., 1.53130273e+03, 1532., 1.53134375e+03, 1.53037268e+03, 1.53178125e+03, 1532., 1532., 1532., 1532., 1.52952454e+03, 1.53115149e+03, 1532., 1532., 1532., 1.53189062e+03, 1.53012683e+03, 1.53053699e+03, 1532., 1.52848462e+03, 1.53057971e+03, 1.53199316e+03, 1.53155566e+03, 1532., 1532., 1532., 1.53068738e+03, 1532., 1532., 1532., 1532., 1532., 1.52981250e+03, 1.53183582e+03, 1532., 1532., 1532., 1532., 1532., 1532., 1532., 1532., 1532., 1532., 1532., 1532., 1532., 1532., 1532., 1532., 1532., 1532., 1532., 1532., 1532., 1532., 1532., 1.52680786e+03, 1532., 1532., 1532., 1532., 1532., 1532., 1532., 1.53200342e+03, 1525., 1525., 1525., 1525., 1525., 1525., 1525., 1525., 1525., 1525., 1525., 1525., 1525., 1525., 1525., 1525., 1525., 1525., 1525., 1.52850000e+03, 1.52852734e+03, 1.52940234e+03, 1525., 1525., 1525., 1525., 1525., 1525., 1.52833313e+03, 1.52745422e+03, 1525., 1.52502734e+03, 1525., 1.52679443e+03, 1.52503076e+03, 1.52504443e+03, 1525., 1.52501709e+03, 1532., 1532., 1532., 1532., 1532., 1532., 1532., 1.53197937e+03, 1532., 1532., 1532., 1532., 1532., 1532., 1532., 1532., 1.52613940e+03, 1525., 1525., 1525., 1525., 1525., 1525., 1525., 1525., 1532., 1532., 1.53880750e+03, 1.53883594e+03, 1532., 1532., 1532., 1525., 1525., 1525., 1525., 1525., 1525., 1525., 1525., 1525., 1525., 1525., 1525., 1525., 1525., 1.52499414e+03, 1.52490613e+03, 1.52490613e+03, 1.52463855e+03, 1.52485059e+03, 1.52490613e+03, 1525., 1525., 1525., 1525., 1525., 1525., 1525., 1525., 1.52349719e+03, 1525., 1525., 1525., 1525., 1525., 1525., 1525., 1525., 1525., 1525., 1525., 1525., 1.52500427e+03, 1.53199927e+03, 1.52522314e+03, 1525., 1525., 1525., 1525., 1525., 1525., 1525., 1525., 1525., 1.52500220e+03, 1525., 1525., 1525., 1525., 1525., 1525., 1525., 1525., 1525., 1519., 1519., 1519., 1519., 1519., 1519., 1519., 1519., 1519., 1519., 1519., 1525., 1.52481213e+03, 1.52481213e+03, 1.52497620e+03, 1.52497620e+03, 1.52328723e+03, 1525., 1525., 1.52497656e+03, 1525., 1525., 1525., 1.52481250e+03, 1525., 1525., 1.52181079e+03, 1.52181079e+03, 1525., 1.52108911e+03, 1525., 1525., 1525., 1.52499414e+03, 1525., 1525., 1.52499414e+03, 1525., 1525., 1525., 1525., 1525., 1.52500867e+03, 1525., 1525., 1525., 1525., 1525., 1525., 1525., 1.52984082e+03, 1532., 1532., 1.53177441e+03, 1532., 1532., 1.53199316e+03, 1.53199292e+03,
       1.53811560e+03, 1.53245166e+03, 1.53243811e+03, 1.53812500e+03, 1532., 1532., 1532., 1532., 1.52867712e+03, 1.53156250e+03, 1532., 1532., 1.53178125e+03, 1.53042029e+03, 1525., 1.52850171e+03, 1.53025598e+03, 1.53025598e+03, 1.52850513e+03, 1525., 1525., 1525., 1.53097449e+03, 1.52522375e+03, 1.52718823e+03, 1.53198962e+03, 1.53154956e+03, 1.53199658e+03, 1532., 1532., 1.53056775e+03, 1532., 1532., 1532., 1532., 1532., 1532., 1532., 1532., 1532., 1532., 1532., 1532., 1.53189050e+03, 1532., 1532., 1532., 1532., 1532., 1532., 1532., 1532., 1532., 1532., 1532., 1532., 1532., 1532., 1532., 1532., 1532., 1532., 1532., 1532., 1532., 1532., 1532., 1532., 1532., 1.53200342e+03, 1525., 1525., 1525., 1525., 1525., 1525., 1525., 1525., 1525., 1525., 1525., 1525., 1525., 1525., 1525., 1525., 1525., 1525., 1525., 1525., 1525., 1525., 1525., 1525., 1525., 1525., 1525., 1525., 1.52722900e+03, 1525., 1525., 1525., 1525., 1.52723242e+03, 1.52723242e+03, 1.53111707e+03, 1525., 1.53115125e+03, 1532., 1532., 1532., 1.53164355e+03, 1.53141724e+03, 1.53199976e+03, 1.53197937e+03, 1.53153821e+03, 1.52587500e+03, 1532., 1532., 1532., 1532., 1.53199829e+03, 1.53024829e+03, 1.52613501e+03, 1.52591626e+03, 1525., 1525., 1525., 1.52490625e+03, 1.52012646e+03, 1.52181470e+03, 1525., 1525., 1532., 1532., 1.53528186e+03, 1.53889038e+03, 1532., 1532., 1.53194531e+03, 1525., 1525., 1525., 1525., 1525., 1525., 1525., 1525., 1525., 1525., 1525., 1525., 1.51900037e+03, 1.52050037e+03, 1.52087537e+03, 1519., 1519., 1519., 1.52484912e+03, 1.52425000e+03, 1525., 1525., 1525., 1525., 1525., 1525., 1525., 1525., 1.52499939e+03, 1525., 1.52499939e+03, 1.52499963e+03, 1.52499951e+03, 1.52499963e+03, 1.52499963e+03, 1525., 1525., 1525., 1525., 1525., 1525., 1525., 1525., 1525., 1525., 1525., 1525., 1525., 1525., 1525., 1.53061792e+03, 1.52974292e+03, 1.52886108e+03, 1.53156226e+03, 1525., 1525., 1525., 1525., 1525., 1525., 1525., 1525., 1525., 1519., 1519., 1519., 1519., 1519., 1519., 1519., 1519., 1519., 1519., 1519., 1522., 1519., 1522., 1519., 1522., 1519., 1.52314722e+03, 1.52319397e+03, 1519., 1519., 1.52018359e+03, 1.51938965e+03, 1519., 1.52181213e+03, 1.51953613e+03, 1519., 1.51904980e+03, 1525., 1.52114197e+03, 1.52499854e+03, 1525., 1525., 1.52499414e+03, 1525., 1525., 1.52349414e+03, 1525., 1525., 1.52461328e+03, 1525., 1525., 1525., 1.52461328e+03, 1525., 1525., 1525., 1525., 1525., 1525., 1525., 1.52989600e+03, 1.52543762e+03, 1525., 1.52850000e+03, 1.53077271e+03, 1525., 1.53028162e+03,
       1532., 1532., 1532., 1532., 1.52981250e+03, 1.52891992e+03, 1532., 1532., 1.52889282e+03, 1532., 1.53134375e+03, 1.52943591e+03, 1.52675085e+03, 1.52500085e+03, 1525., 1525., 1525., 1525., 1525., 1525., 1525., 1525., 1525., 1525., 1525., 1.52675073e+03, 1525., 1.53027759e+03, 1.53122314e+03, 1.53199658e+03, 1.52852734e+03, 1.53188684e+03, 1.53199988e+03, 1.53014050e+03, 1532., 1532., 1532., 1.53199988e+03, 1532., 1532., 1532., 1532., 1532., 1.53189050e+03, 1532., 1532., 1532., 1532., 1532., 1532., 1532., 1532., 1532., 1532., 1532., 1532., 1532., 1532., 1532., 1532., 1532., 1532., 1532., 1532., 1532., 1532., 1532., 1532., 1532., 1532., 1525., 1525., 1525., 1525., 1525., 1525., 1525., 1.52199927e+03, 1525., 1.52189233e+03, 1525., 1525., 1525., 1525., 1525., 1525., 1525., 1525., 1525., 1525., 1525., 1525., 1525., 1525., 1525., 1525., 1525., 1525., 1.52501367e+03, 1525., 1525., 1525., 1525., 1.52745117e+03, 1.52745117e+03, 1532., 1532., 1532., 1532., 1532., 1532., 1.53189062e+03, 1.53186865e+03, 1.53186987e+03, 1.53134717e+03, 1525., 1525., 1.53149512e+03, 1532., 1532., 1532., 1.52981079e+03, 1.52608069e+03, 1.52587500e+03, 1.52587500e+03, 1525., 1525., 1525., 1525., 1.52031396e+03, 1.52490625e+03, 1525., 1.53198633e+03, 1.53375000e+03, 1.53879382e+03, 1539., 1.53889038e+03, 1532., 1532., 1.53179724e+03, 1525., 1525., 1525., 1525., 1525., 1525., 1525., 1525., 1525., 1525., 1.52497656e+03, 1525., 1.51900037e+03, 1.52486499e+03, 1.52387537e+03, 1519., 1519., 1519., 1519., 1.51975000e+03, 1.52489966e+03, 1525., 1525., 1525., 1525., 1525., 1.52350000e+03, 1.52006641e+03, 1.51909375e+03, 1.52007239e+03, 1.51976172e+03, 1.51976172e+03, 1.52013672e+03, 1.52033386e+03, 1.52033521e+03, 1525., 1525., 1525., 1525., 1525., 1525., 1525., 1525., 1525., 1525., 1525., 1525., 1525., 1525., 1525., 1525., 1525., 1525., 1525., 1525., 1525., 1525., 1525., 1525., 1525., 1525., 1525., 1525., 1519., 1519., 1519., 1519., 1519., 1519., 1519., 1519., 1519., 1519., 1519., 1519., 1519., 1519., 1519., 1519., 1519., 1.52013245e+03, 1.52013306e+03, 1519., 1519., 1.51937500e+03, 1519., 1519., 1519., 1519., 1519., 1519., 1525., 1519., 1.52189807e+03, 1525., 1.52499927e+03, 1.52339966e+03, 1525., 1.52339966e+03, 1.51900146e+03, 1525., 1.52321851e+03, 1519., 1.52433203e+03, 1.52462500e+03, 1525., 1.51900586e+03, 1.52498816e+03, 1525., 1.52498828e+03, 1525., 1525., 1.52499707e+03, 1525., 1525., 1.52499707e+03, 1.52240088e+03, 1.52395972e+03, 1.52481226e+03, 1.52481226e+03, 1525.,
       1532., 1532., 1532., 1532., 1525., 1525., 1.53086133e+03, 1.53198572e+03, 1.52977124e+03, 1532., 1.53134375e+03, 1.52949072e+03, 1.52675623e+03, 1.52500085e+03, 1525., 1525., 1525., 1525., 1525., 1525., 1525., 1525., 1525., 1.52696948e+03, 1.52677820e+03, 1.53027808e+03, 1.52677734e+03, 1.52502734e+03, 1.52502734e+03, 1.52502734e+03, 1525., 1.52852734e+03, 1525., 1525., 1.52874915e+03, 1.52875964e+03, 1.52875098e+03, 1.53050085e+03, 1532., 1532., 1532., 1532., 1532., 1532., 1532., 1532., 1532., 1.53191711e+03, 1532., 1532., 1532., 1532., 1532., 1532., 1532., 1532., 1532., 1532., 1532., 1532., 1532., 1532., 1532., 1532., 1532., 1532., 1532., 1532., 1532., 1532., 1525., 1525., 1525., 1525., 1525., 1525., 1.51972876e+03, 1.51902344e+03, 1.51902380e+03, 1519., 1.51977393e+03, 1.52189380e+03, 1.51977380e+03, 1.52038354e+03, 1525., 1525., 1525., 1525., 1525., 1525., 1525., 1525., 1525., 1525., 1525., 1525., 1525., 1525., 1525., 1525., 1525., 1525., 1525., 1525., 1525., 1.52504492e+03, 1.52510144e+03, 1532., 1532., 1532., 1532., 1532., 1532., 1.53197925e+03, 1.53134375e+03, 1525., 1525., 1.52609460e+03, 1532., 1532., 1.52630042e+03, 1.52608069e+03, 1.52587500e+03, 1.52587500e+03, 1.52587500e+03, 1525., 1525., 1.51976489e+03, 1.52185339e+03, 1519., 1.52185339e+03, 1525., 1.53165479e+03, 1532., 1.53375049e+03, 1.53886987e+03, 1.53375000e+03, 1.53162378e+03, 1.53197266e+03, 1525., 1525., 1525., 1525., 1525., 1525., 1525., 1525., 1525., 1.52495312e+03, 1525., 1.52012793e+03, 1525., 1519., 1.52485352e+03, 1.51900037e+03, 1519., 1519., 1519., 1.52499121e+03, 1525., 1525., 1525., 1525., 1525., 1525., 1525., 1.52350000e+03, 1.52006641e+03, 1519., 1.51987891e+03, 1.51985547e+03, 1.51976245e+03, 1.51901392e+03, 1.52032642e+03, 1.52163013e+03, 1525., 1525., 1.52485938e+03, 1525., 1525., 1525., 1525., 1525., 1525., 1525., 1525., 1525., 1525., 1525., 1525., 1525., 1525., 1.52361621e+03, 1519., 1519., 1.52410913e+03, 1.52415613e+03, 1525., 1.52225781e+03, 1525., 1525., 1525., 1525., 1519., 1519., 1519., 1519., 1.51725000e+03, 1.51867102e+03, 1.51899915e+03, 1519., 1519., 1519., 1519., 1519., 1519., 1519., 1519., 1519., 1519., 1.51937512e+03, 1.52014819e+03, 1519., 1519., 1519., 1519., 1519., 1519., 1519., 1519., 1519., 1.52190356e+03, 1519., 1519., 1.52489819e+03, 1.52018384e+03, 1519., 1.52321240e+03, 1519., 1519., 1.51900293e+03, 1519., 1519., 1519., 1.51901038e+03, 1.51900757e+03, 1519., 1.51982727e+03, 1.52498828e+03, 1.52461023e+03, 1525., 1.52499707e+03, 1.52499707e+03, 1.52499707e+03, 1.52499707e+03, 1.52499707e+03, 1.52391101e+03, 1.52480786e+03, 1.52499976e+03, 1525., 1525.,
       1532., 1532., 1532., 1532., 1525., 1525., 1.52500024e+03, 1.52500024e+03, 1525., 1525., 1525., 1525., 1525., 1525., 1.52441406e+03, 1.52441406e+03, 1.52441394e+03, 1.52361670e+03, 1525., 1525., 1525., 1.52219043e+03, 1525., 1525., 1525., 1.52675000e+03, 1525., 1525., 1525., 1525., 1525., 1.52502734e+03, 1525., 1525., 1525., 1.52850098e+03, 1525., 1.52521875e+03, 1525., 1.53025000e+03, 1.53025000e+03, 1.53037769e+03, 1.53036401e+03, 1.53026709e+03, 1.53199988e+03, 1532., 1532., 1.53082349e+03, 1532., 1532., 1532., 1532., 1532., 1532., 1532., 1532., 1532., 1532., 1532., 1532., 1532., 1532., 1532., 1532., 1532., 1532., 1532., 1532., 1532., 1532., 1525., 1525., 1525., 1525., 1525., 1525., 1.51907043e+03, 1519., 1519., 1519., 1519., 1.52019604e+03, 1.52019604e+03, 1.52489819e+03, 1525., 1525., 1525., 1525., 1525., 1525., 1525., 1525., 1525., 1525., 1525., 1525., 1525., 1525., 1525., 1525., 1525., 1525., 1525., 1525., 1.52502783e+03, 1.52745288e+03, 1.53189062e+03, 1532., 1532., 1532., 1532., 1532., 1.53180859e+03, 1.53179492e+03, 1.52587500e+03, 1525., 1525., 1.52587585e+03, 1.52830310e+03, 1532., 1.52587500e+03, 1.52587500e+03, 1525., 1525., 1525., 1525., 1525., 1519., 1.51900146e+03, 1519., 1.52088232e+03, 1.52490625e+03, 1525., 1532., 1532., 1532., 1532., 1525., 1525., 1525., 1.52497656e+03, 1.52492944e+03, 1.52417944e+03, 1.52497656e+03, 1525., 1.52492969e+03, 1.51938672e+03, 1.52192969e+03, 1.51938989e+03, 1525., 1519., 1.52499414e+03, 1519., 1.52499414e+03, 1.52419727e+03, 1.51900049e+03, 1.52498242e+03, 1.51900061e+03, 1525., 1525., 1525., 1525., 1525., 1525., 1525., 1525., 1.52350000e+03, 1.52032715e+03, 1.51901172e+03, 1.51977319e+03, 1.52033569e+03, 1.51976392e+03, 1.52014185e+03, 1.52183533e+03, 1.52183557e+03, 1.52483594e+03, 1525., 1525., 1525., 1525., 1525., 1525., 1525., 1525., 1525., 1525., 1525., 1525., 1525., 1525., 1525., 1.52380371e+03, 1.52359863e+03, 1519., 1519., 1.51919775e+03, 1.51919812e+03, 1.52334753e+03, 1.51919885e+03, 1525., 1525., 1525., 1525., 1519., 1.51200635e+03, 1.51692188e+03, 1.51692188e+03, 1512., 1.51200342e+03, 1.51688501e+03, 1519., 1519., 1519., 1.51897266e+03, 1519., 1519., 1519., 1.51900146e+03, 1519., 1519., 1.51937720e+03, 1.51938062e+03, 1519., 1519., 1519., 1519., 1519., 1519., 1.51878101e+03, 1519., 1519., 1519., 1519., 1519., 1519., 1519., 1519., 1519., 1519., 1519., 1519., 1519., 1519., 1.51900146e+03, 1.51900146e+03, 1519., 1519., 1.52348523e+03, 1525., 1.52310962e+03, 1525., 1.52499707e+03, 1.52348535e+03, 1.52499707e+03, 1.52499707e+03, 1.51900146e+03, 1519., 1522., 1.52388757e+03, 1.52478113e+03, 1.52499976e+03,
       1.53090625e+03, 1532., 1.53075220e+03, 1532., 1525., 1525., 1525., 1525., 1525., 1525., 1525., 1.52481250e+03, 1.52174219e+03, 1.52478906e+03, 1519., 1519., 1519., 1519., 1519., 1519., 1519., 1519., 1525., 1525., 1525., 1.52675000e+03, 1525., 1525., 1.52499927e+03, 1.52480884e+03, 1.52053076e+03, 1525., 1.52499988e+03, 1.52265601e+03, 1525., 1525., 1525., 1525., 1525., 1525., 1525., 1525., 1525., 1525., 1525., 1.53175354e+03, 1.53169836e+03, 1525., 1532., 1532., 1532., 1532., 1532., 1.53191284e+03, 1.52696948e+03, 1532., 1532., 1532., 1532., 1532., 1532., 1532., 1532., 1532., 1.53199976e+03, 1.53199976e+03, 1.53199976e+03, 1.52924512e+03, 1532., 1532., 1525., 1525., 1525., 1525., 1.52199854e+03, 1.52499854e+03, 1519., 1.51295789e+03, 1.51374915e+03, 1.51374231e+03, 1.51899316e+03, 1519., 1519., 1519., 1.52033655e+03, 1525., 1525., 1525., 1525., 1525., 1525., 1525., 1525., 1525., 1525., 1525., 1525., 1525., 1525., 1525., 1525., 1525., 1525., 1525., 1525., 1525., 1.52500012e+03, 1.52675183e+03, 1.53181433e+03, 1.52719104e+03, 1525., 1525., 1525., 1525., 1525., 1525., 1525., 1.52587500e+03, 1.52587500e+03, 1.52633435e+03, 1525., 1525., 1525., 1525., 1525., 1525., 1.52181787e+03, 1519., 1519., 1519., 1.52409717e+03, 1525., 1525., 1.53176733e+03, 1532., 1532., 1.53195874e+03, 1525., 1525., 1.52368970e+03, 1519., 1519., 1519., 1.52155444e+03, 1525., 1.52183154e+03, 1519., 1.52013672e+03, 1519., 1.51937500e+03, 1519., 1519., 1519., 1519., 1519., 1519., 1519., 1519., 1.52007983e+03, 1.52498242e+03, 1525., 1525., 1525., 1525., 1525., 1525., 1.52349902e+03, 1.51976465e+03, 1519., 1.51901172e+03, 1.51976172e+03, 1519., 1.51901392e+03, 1.52012720e+03, 1.52087720e+03, 1.52050220e+03, 1.52108557e+03, 1.52108557e+03, 1525., 1525., 1.52476489e+03, 1525., 1525., 1525., 1525., 1525., 1525., 1525., 1525., 1525., 1525., 1525., 1525., 1.52425000e+03, 1.52200781e+03, 1.52494128e+03, 1.52499988e+03, 1.52494128e+03, 1.51900073e+03, 1.52447253e+03, 1.52490625e+03, 1525., 1.52312500e+03, 1.51644336e+03, 1.51550684e+03, 1519., 1519., 1.51688770e+03, 1.51867102e+03, 1519., 1519., 1519., 1519., 1519., 1519., 1519., 1519., 1.51900146e+03, 1519., 1.51900146e+03, 1.51900146e+03, 1.51900146e+03, 1519., 1519., 1519., 1519., 1519., 1.51878101e+03, 1.51514429e+03, 1519., 1519., 1519., 1519., 1519., 1519., 1519., 1519., 1519., 1519., 1519., 1519., 1519., 1519., 1.51900220e+03, 1519., 1519., 1519., 1.52001501e+03, 1.52498828e+03, 1.51900586e+03, 1.52498499e+03, 1.51973315e+03, 1.51904688e+03, 1.51916479e+03, 1519., 1519., 1519., 1519., 1519., 1519., 1.52499390e+03,
       1.53090344e+03, 1.53189062e+03, 1525., 1532., 1525., 1525., 1525., 1525., 1525., 1525., 1525., 1.52481250e+03, 1.52060681e+03, 1.51909497e+03, 1519., 1.51878125e+03, 1519., 1.51831641e+03, 1519., 1519., 1519., 1519., 1.52009863e+03, 1.51909668e+03, 1525., 1525., 1525., 1.52480884e+03, 1.52480884e+03, 1.52171460e+03, 1.52170288e+03, 1525., 1.52499988e+03, 1.51944531e+03, 1.52348816e+03, 1525., 1525., 1525., 1525., 1525., 1525., 1525., 1525., 1525., 1525., 1.53156592e+03, 1.53169836e+03, 1525., 1532., 1.53178125e+03, 1.53178125e+03, 1532., 1.53199915e+03, 1.52555396e+03, 1525., 1532., 1.53199731e+03, 1.53199915e+03, 1532., 1532., 1532., 1532., 1532., 1532., 1532., 1.53199976e+03, 1.53199976e+03, 1.52551953e+03, 1532., 1532., 1525., 1.51945117e+03, 1.51902344e+03, 1.51902344e+03, 1519., 1519., 1.51205481e+03, 1512., 1512., 1512., 1.51287512e+03, 1.51306897e+03, 1.51538123e+03, 1.51899316e+03, 1519., 1.52182776e+03, 1.52031250e+03, 1.52035132e+03, 1.52499854e+03, 1525., 1525., 1525., 1525., 1525., 1525., 1525., 1525., 1525., 1525., 1525., 1525., 1525., 1525., 1525., 1525., 1525., 1525., 1525., 1525., 1525., 1525., 1525., 1525., 1525., 1525., 1525., 1525., 1525., 1525., 1525., 1525., 1525., 1.52190466e+03, 1.51993848e+03, 1525., 1.52490576e+03, 1.52068896e+03, 1519., 1.52087720e+03, 1.52050220e+03, 1525., 1525., 1525., 1.52678333e+03, 1532., 1.53176758e+03, 1.53173999e+03, 1525., 1525., 1.52068970e+03, 1.51900073e+03, 1.51900073e+03, 1519., 1.52050220e+03, 1.52495312e+03, 1519., 1519., 1519., 1519., 1519., 1519., 1519., 1519., 1519., 1519., 1519., 1519., 1519., 1.51993970e+03, 1.52498242e+03, 1525., 1.52499414e+03, 1.52499414e+03, 1.52199402e+03, 1.51975000e+03, 1519., 1519., 1519., 1519., 1519., 1519., 1519., 1519., 1519., 1.51900220e+03, 1.51900146e+03, 1.52087720e+03, 1.52087732e+03, 1.52495312e+03, 1.51950842e+03, 1.51909839e+03, 1525., 1525., 1525., 1525., 1525., 1525., 1525., 1525., 1525., 1525., 1525., 1525., 1.52425000e+03, 1.52231067e+03, 1.52409753e+03, 1.52419128e+03, 1.52456628e+03, 1519., 1.52201135e+03, 1.52219910e+03, 1525., 1.52224609e+03, 1.51200659e+03, 1.51200610e+03, 1519., 1.51725000e+03, 1.51709204e+03, 1519., 1519., 1519., 1519., 1519., 1519., 1519., 1519., 1519., 1.51937720e+03, 1.51900146e+03, 1.51900146e+03, 1.51900146e+03, 1.51937769e+03, 1519., 1519., 1519., 1519., 1519., 1519., 1.51878101e+03, 1519., 1519., 1519., 1519., 1519., 1519., 1519., 1519., 1519., 1519., 1519., 1519., 1519., 1519., 1519., 1519., 1519., 1519., 1519., 1.52038940e+03, 1519., 1.52034204e+03, 1.52498267e+03, 1519., 1.52343042e+03, 1.52312573e+03, 1519., 1519., 1519., 1519., 1519., 1.52051550e+03,
       1.52501367e+03, 1.53189062e+03, 1.52543799e+03, 1532., 1525., 1525., 1525., 1525., 1525., 1525., 1525., 1.52135400e+03, 1.51900037e+03, 1.51900122e+03, 1519., 1.51878125e+03, 1.51834375e+03, 1.51299841e+03, 1.51856250e+03, 1519., 1519., 1519., 1519., 1519., 1519., 1.52174097e+03, 1.52050000e+03, 1519., 1519., 1.51878040e+03, 1.51877698e+03, 1.52471460e+03, 1519., 1519., 1519., 1.51902344e+03, 1.52499976e+03, 1525., 1525., 1.52387061e+03, 1.52424854e+03, 1525., 1525., 1525., 1525., 1525., 1525., 1525., 1.53025171e+03, 1.52675000e+03, 1525., 1.52675000e+03, 1525., 1525., 1.52499927e+03, 1.52699634e+03, 1.52675000e+03, 1.52502734e+03, 1.52743359e+03, 1.52712476e+03, 1.52700977e+03, 1.53199976e+03, 1532., 1532., 1.53199976e+03, 1.53199976e+03, 1.53199976e+03, 1.52935962e+03, 1532., 1532., 1.52499963e+03, 1519., 1519., 1519., 1519., 1519., 1.51205481e+03, 1512., 1512., 1.51202747e+03, 1.51287512e+03, 1.51290637e+03, 1.51290320e+03, 1.51374060e+03, 1.51893591e+03, 1519., 1519., 1519., 1.51956250e+03, 1.52485779e+03, 1525., 1525., 1525., 1525., 1525., 1525., 1.52462500e+03, 1525., 1525., 1525., 1525., 1525., 1525., 1525., 1525., 1525., 1525., 1525., 1525., 1525., 1525., 1525., 1525., 1525., 1525., 1525., 1525., 1525., 1525., 1525., 1525., 1525., 1.52188989e+03, 1519., 1525., 1.52106787e+03, 1.52106470e+03, 1519., 1.52406763e+03, 1.52485889e+03, 1525., 1525., 1525., 1525., 1525., 1525., 1525., 1.52050513e+03, 1.52495874e+03, 1519., 1519., 1519., 1519., 1519., 1.52068750e+03, 1519., 1519., 1519., 1519., 1519., 1519., 1519., 1519., 1.51931396e+03, 1.51919055e+03, 1519., 1.51933154e+03, 1.51918750e+03, 1.52010645e+03, 1.52010742e+03, 1.52160352e+03, 1519., 1519., 1519., 1519., 1519., 1519., 1519., 1519., 1519., 1519., 1519., 1519., 1519., 1.51900146e+03, 1519., 1.51900146e+03, 1519., 1.51900146e+03, 1519., 1519., 1.52478784e+03, 1525., 1525., 1525., 1525., 1525., 1525., 1525., 1525., 1525., 1525., 1525., 1.52382422e+03, 1522., 1.52371680e+03, 1.52372144e+03, 1.52456628e+03, 1519., 1.52201135e+03, 1.51900549e+03, 1.52332410e+03, 1.51900549e+03, 1.51200342e+03, 1.51288098e+03, 1.51889673e+03, 1519., 1.51845923e+03, 1.51899316e+03, 1519., 1519., 1519., 1519., 1519., 1519., 1519., 1519., 1.51900146e+03, 1.51900146e+03, 1.51900146e+03, 1.51900146e+03, 1.52166589e+03, 1519., 1519., 1519., 1519., 1519., 1519., 1519., 1519., 1519., 1519., 1519., 1519., 1519., 1519., 1519., 1519., 1519., 1519., 1519., 1519., 1519., 1519., 1519., 1519., 1519., 1519., 1519., 1519., 1.51902344e+03, 1.51959180e+03, 1519., 1.51956323e+03, 1.51937573e+03, 1519., 1519., 1519., 1519., 1519., 1519.,
       1.52545117e+03, 1532., 1.53167163e+03, 1532., 1.51900598e+03, 1525., 1525., 1525., 1.52378247e+03, 1.51900073e+03, 1.51900073e+03, 1519., 1519., 1519., 1.51387634e+03, 1.51833496e+03, 1.51656458e+03, 1.51288867e+03, 1.51856165e+03, 1519., 1519., 1519., 1519., 1519., 1.51902356e+03, 1.52495239e+03, 1519., 1.51899915e+03, 1.51899915e+03, 1.51899915e+03, 1.51899915e+03, 1.51937500e+03, 1.51899915e+03, 1.51253357e+03, 1519., 1519., 1519., 1519., 1519., 1519., 1.51900012e+03, 1.52370544e+03, 1.51900012e+03, 1519., 1519., 1.52499976e+03, 1525., 1.52050586e+03, 1.52481226e+03, 1525., 1525., 1525., 1525., 1525., 1.52499927e+03, 1.52568384e+03, 1525., 1525., 1525., 1525., 1525., 1.52503076e+03, 1.53199316e+03, 1.52674243e+03, 1.52623645e+03, 1.52525122e+03, 1.53022803e+03, 1.52568359e+03, 1532., 1.52672266e+03, 1.51953906e+03, 1519., 1.51899829e+03, 1519., 1519., 1519., 1.51899976e+03, 1512., 1512., 1512., 1.51288037e+03, 1.51287500e+03, 1.51287500e+03, 1.51287500e+03, 1.51287500e+03, 1.51894531e+03, 1.51532910e+03, 1519., 1519., 1.52183386e+03, 1525., 1525., 1525., 1525., 1525., 1525., 1.52453125e+03, 1.52353918e+03, 1.52359229e+03, 1.52353601e+03, 1.52490479e+03, 1525., 1525., 1525., 1525., 1525., 1525., 1525., 1525., 1525., 1525., 1525., 1525., 1525., 1525., 1525., 1525., 1525., 1525., 1525., 1525., 1525., 1.52188562e+03, 1.52499414e+03, 1525., 1525., 1525., 1.52499988e+03, 1525., 1525., 1525., 1525., 1525., 1525., 1525., 1525., 1525., 1519., 1.51900146e+03, 1519., 1519., 1519., 1519., 1519., 1519., 1519., 1519., 1519., 1519., 1519., 1519., 1519., 1519., 1.51900293e+03, 1519., 1519., 1.51932849e+03, 1.51928162e+03, 1.52310718e+03, 1.52348242e+03, 1.51909558e+03, 1519., 1519., 1519., 1519., 1519., 1519., 1519., 1519., 1519., 1519., 1519., 1519., 1519., 1519., 1519., 1519., 1519., 1519., 1519., 1519., 1519., 1519., 1519., 1.51900146e+03, 1.52199329e+03, 1525., 1525., 1525., 1525., 1525., 1525., 1525., 1525., 1.52495312e+03, 1525., 1525., 1525., 1.52219922e+03, 1.52219885e+03, 1.51900366e+03, 1.51900366e+03, 1.51900073e+03, 1512., 1.51200085e+03, 1.51287598e+03, 1.51298877e+03, 1.51298877e+03, 1.51899316e+03, 1519., 1519., 1519., 1519., 1.51757129e+03, 1519., 1519., 1519., 1519., 1519., 1.51900146e+03, 1.51900146e+03, 1.52182996e+03, 1519., 1519., 1519., 1519., 1.51882910e+03, 1.51891772e+03, 1.51200085e+03, 1.51200256e+03, 1519., 1519., 1519., 1.51713892e+03, 1519., 1519., 1519., 1519., 1519., 1519., 1.51899829e+03, 1519., 1519., 1519., 1519., 1519., 1519., 1519., 1519., 1519., 1519., 1519., 1519., 1.51956323e+03, 1.51937500e+03, 1519., 1519., 1519., 1519., 1519., 1519.,
       1.52680469e+03, 1532., 1.52815283e+03, 1525., 1519., 1525., 1519., 1.52050061e+03, 1519., 1519., 1519., 1519., 1.51894519e+03, 1.51299268e+03, 1512., 1.51287500e+03, 1.51287500e+03, 1.51287500e+03, 1519., 1519., 1519., 1519., 1519., 1519., 1519., 1.52350232e+03, 1519., 1.51794946e+03, 1519., 1519., 1519., 1.51939868e+03, 1519., 1.51254053e+03, 1519., 1519., 1519., 1519., 1519., 1519., 1519., 1.52384717e+03, 1.51909375e+03, 1519., 1.51909375e+03, 1525., 1525., 1.52479639e+03, 1525., 1525., 1525., 1525., 1525., 1.52195239e+03, 1.52419946e+03, 1525., 1525., 1525., 1.52495312e+03, 1525., 1.52485278e+03, 1525., 1525., 1525., 1525., 1525., 1525., 1525., 1.52585107e+03, 1525., 1519., 1.51899829e+03, 1.51262915e+03, 1.51549829e+03, 1.51549463e+03, 1519., 1.51307422e+03, 1512., 1512., 1512., 1512., 1512., 1512., 1512., 1512., 1.51894531e+03, 1.51529980e+03, 1519., 1519., 1.52033008e+03, 1525., 1525., 1525., 1.52040161e+03, 1525., 1.52226978e+03, 1.52202417e+03, 1519., 1519., 1519., 1519., 1.51919055e+03, 1.52499976e+03, 1525., 1525., 1525., 1525., 1525., 1525., 1525., 1525., 1525., 1525., 1525., 1525., 1525., 1525., 1525., 1525., 1525., 1525., 1525., 1522., 1525., 1525., 1525., 1525., 1525., 1525., 1525., 1525., 1525., 1525., 1525., 1525., 1525., 1525., 1519., 1519., 1519., 1519., 1519., 1519., 1519., 1519., 1519., 1519., 1519., 1519., 1519., 1519., 1519., 1519., 1.51912048e+03, 1.51902356e+03, 1519., 1.52235498e+03, 1.51914099e+03, 1.52349414e+03, 1525., 1519., 1519., 1519., 1519., 1519., 1.51420715e+03, 1.51387903e+03, 1519., 1519., 1519., 1519., 1519., 1519., 1519., 1519., 1519., 1519., 1519., 1519., 1519., 1519., 1519., 1519., 1519., 1519., 1.51975000e+03, 1.52199341e+03, 1525., 1525., 1525., 1525., 1525., 1525., 1.52422510e+03, 1.52417493e+03, 1.52219360e+03, 1.52409570e+03, 1525., 1519., 1519., 1519., 1.51900391e+03, 1519., 1512., 1512., 1512., 1512., 1.51287500e+03, 1.51548718e+03, 1.51899316e+03, 1519., 1519., 1519., 1.51899316e+03, 1519., 1519., 1519., 1519., 1519., 1.51900146e+03, 1519., 1.52070203e+03, 1519., 1519., 1519., 1519., 1519., 1.51722241e+03, 1.51200256e+03, 1512., 1.51590649e+03, 1512., 1.51201453e+03, 1512., 1.51883325e+03, 1.51705554e+03, 1519., 1519., 1519., 1.51883337e+03, 1.51880688e+03, 1.51544531e+03, 1519., 1519., 1519., 1519., 1519., 1519., 1519., 1519., 1519., 1519., 1519., 1519., 1519., 1519., 1519., 1519., 1519., 1.51975085e+03, 1519.,
       1525., 1.52727783e+03, 1525., 1525., 1519., 1.52477380e+03, 1519., 1519., 1519., 1519., 1519., 1519., 1.51498889e+03, 1.51200049e+03, 1512., 1512., 1512., 1.51287500e+03, 1.51680652e+03, 1519., 1519., 1519., 1519., 1519., 1519., 1.51900146e+03, 1519., 1.51265820e+03, 1519., 1519., 1519., 1.51937793e+03, 1519., 1.51243774e+03, 1519., 1519., 1519., 1519., 1519., 1519., 1.52233521e+03, 1525., 1.52421777e+03, 1.52214136e+03, 1.51909375e+03, 1.52498804e+03, 1.52499976e+03, 1.51909375e+03, 1.52479358e+03, 1.52475256e+03, 1.52476428e+03, 1.52499927e+03, 1525., 1.51909375e+03, 1519., 1525., 1.52420239e+03, 1.52420239e+03, 1.51958618e+03, 1.51960242e+03, 1519., 1.52490588e+03, 1525., 1525., 1525., 1525., 1525., 1525., 1525., 1525., 1519., 1.51263599e+03, 1512., 1.51263611e+03, 1.51438599e+03, 1519., 1.51591284e+03, 1512., 1512., 1512., 1512., 1512., 1512., 1512., 1512., 1.51243750e+03, 1512., 1.51544531e+03, 1.51550000e+03, 1.52013086e+03, 1.52014551e+03, 1.51938086e+03, 1.52012793e+03, 1519., 1.52018970e+03, 1519., 1519., 1519., 1519., 1519., 1519., 1519., 1.51900293e+03, 1.51947754e+03, 1525., 1525., 1525., 1525., 1525., 1525., 1525., 1525., 1525., 1525., 1525., 1525., 1525., 1525., 1525., 1525., 1525., 1525., 1525., 1525., 1525., 1525., 1525., 1525., 1525., 1525., 1525., 1525., 1525., 1525., 1525., 1525., 1525., 1519., 1519., 1519., 1519., 1519., 1519., 1519., 1519., 1519., 1519., 1519., 1519., 1519., 1519., 1519., 1519., 1519., 1519., 1519., 1.51909375e+03, 1519., 1.51909375e+03, 1.51909375e+03, 1519., 1519., 1.51899976e+03, 1512., 1.51201624e+03, 1.51200085e+03, 1.51200085e+03, 1519., 1519., 1519., 1519., 1519., 1519., 1519., 1519., 1519., 1519., 1519., 1519., 1519., 1519., 1519., 1519., 1519., 1519., 1519., 1519., 1.52049341e+03, 1525., 1525., 1525., 1525., 1525., 1525., 1.52378809e+03, 1519., 1519., 1.52219409e+03, 1519., 1519., 1519., 1519., 1519., 1512., 1512., 1512., 1512., 1512., 1.51287500e+03, 1.51287500e+03, 1.51899316e+03, 1519., 1519., 1.51899316e+03, 1519., 1519., 1519., 1519., 1519., 1519., 1519., 1519., 1519., 1519., 1519., 1519., 1519., 1519., 1519., 1.51201282e+03, 1519., 1512., 1.51705835e+03, 1.51551367e+03, 1.51705676e+03, 1.51705591e+03, 1.51724829e+03, 1519., 1.51894360e+03, 1.51245459e+03, 1.51222266e+03, 1.51278406e+03, 1.51368823e+03, 1.51277222e+03, 1519., 1.51355103e+03, 1519., 1519., 1519., 1519., 1519., 1519., 1519., 1519., 1519., 1519., 1519., 1519., 1.51900073e+03, 1.52173572e+03, 1519.,
       1525., 1525., 1525., 1525., 1519., 1519., 1519., 1519., 1519., 1.51200122e+03, 1.51416162e+03, 1512., 1512., 1512., 1512., 1512., 1512., 1512., 1512., 1.51834119e+03, 1.51855652e+03, 1.51856177e+03, 1519., 1.51898914e+03, 1519., 1519., 1519., 1.51898901e+03, 1519., 1519., 1519., 1.51937964e+03, 1.51878125e+03, 1.51243774e+03, 1519., 1519., 1.51883594e+03, 1519., 1519., 1519., 1525., 1525., 1525., 1.52423242e+03, 1525., 1525., 1525., 1.52059375e+03, 1.52474365e+03, 1519., 1519., 1519., 1519., 1519., 1.51899915e+03, 1519., 1519., 1.51918750e+03, 1519., 1.51918750e+03, 1519., 1.51922571e+03, 1525., 1.52499353e+03, 1525., 1525., 1525., 1525., 1.52513672e+03, 1525., 1519., 1.51263599e+03, 1512., 1512., 1512., 1.51854297e+03, 1512., 1512., 1512., 1512., 1512., 1512., 1512., 1512., 1512., 1512., 1512., 1512., 1.51243750e+03, 1519., 1519., 1519., 1519., 1519., 1519., 1519., 1519., 1.51375427e+03, 1.51375427e+03, 1.51851392e+03, 1.51854175e+03, 1519., 1519., 1519., 1.52122559e+03, 1.52499976e+03, 1525., 1525., 1525., 1525., 1525., 1525., 1525., 1525., 1525., 1525., 1525., 1525., 1525., 1525., 1525., 1525., 1525., 1525., 1525., 1525., 1525., 1525., 1525., 1525., 1525., 1525., 1525., 1525., 1525., 1525., 1525., 1519., 1519., 1519., 1519., 1519., 1519., 1519., 1519., 1519., 1519., 1519., 1519., 1519., 1519., 1519., 1519., 1519., 1519., 1519., 1519., 1519., 1519., 1519., 1.51740698e+03, 1512., 1512., 1.51195251e+03, 1512., 1512., 1512., 1.51897266e+03, 1519., 1519., 1519., 1519., 1519., 1519., 1519., 1519., 1519., 1519., 1519., 1519., 1519., 1519., 1519., 1519., 1519., 1519., 1519., 1.51900024e+03, 1525., 1525., 1525., 1525., 1525., 1525., 1.52498486e+03, 1519., 1519., 1519., 1519., 1519., 1519., 1519., 1519., 1512., 1512., 1512., 1512., 1512., 1512., 1.51287500e+03, 1519., 1519., 1519., 1519., 1519., 1519., 1519., 1519., 1519., 1519., 1519., 1519., 1519., 1519., 1519., 1519., 1519., 1519., 1519., 1.51899976e+03, 1519., 1.51571960e+03, 1.51586145e+03, 1512., 1.51708301e+03, 1.51719238e+03, 1.51576318e+03, 1.51899829e+03, 1.51311108e+03, 1.51289209e+03, 1.51201367e+03, 1.51223242e+03, 1.51365918e+03, 1.51243835e+03, 1519., 1.51245374e+03, 1519., 1519., 1519., 1519., 1.51894531e+03, 1.51894446e+03, 1.51894446e+03, 1519., 1519., 1519., 1519., 1519., 1519., 1519., 1519.,
       1.51943530e+03, 1525., 1525., 1525., 1519., 1519., 1519., 1519., 1.51811768e+03, 1512., 1512., 1512., 1512., 1512., 1512., 1512., 1512., 1.51202734e+03, 1.51856250e+03, 1519., 1.51856250e+03, 1519., 1.52050000e+03, 1519., 1519., 1.51900073e+03, 1519., 1.51899609e+03, 1519., 1519., 1519., 1519., 1.51878125e+03, 1.51244116e+03, 1.51594409e+03, 1.51867847e+03, 1512., 1.51878625e+03, 1519., 1519., 1.52233228e+03, 1525., 1.52254321e+03, 1.51909448e+03, 1.52235535e+03, 1.52364441e+03, 1.52477087e+03, 1519., 1519., 1519., 1519., 1519., 1519., 1519., 1.51257422e+03, 1519., 1519., 1519., 1.51894531e+03, 1519., 1519., 1519., 1.51920215e+03, 1519., 1.52499414e+03, 1525., 1525., 1525., 1525., 1525., 1519., 1.51549915e+03, 1512., 1512., 1.51219141e+03, 1.51853955e+03, 1.51202734e+03, 1512., 1.51230078e+03, 1512., 1.51328760e+03, 1512., 1512., 1512., 1512., 1512., 1.51195288e+03, 1512., 1512., 1.51550000e+03, 1519., 1519., 1519., 1519., 1519., 1519., 1.51897266e+03, 1.51200085e+03, 1.51725598e+03, 1.51851440e+03, 1.51216833e+03, 1519., 1519., 1519., 1.51909375e+03, 1.52499976e+03, 1.52499902e+03, 1.52424902e+03, 1.51947791e+03, 1519., 1.52350366e+03, 1525., 1525., 1525., 1525., 1525., 1525., 1525., 1525., 1525., 1525., 1525., 1525., 1525., 1525., 1525., 1525., 1525., 1525., 1525., 1525., 1525., 1525., 1525., 1525., 1525., 1525., 1519., 1519., 1519., 1519., 1519., 1519., 1519., 1519., 1519., 1519., 1519., 1519., 1519., 1519., 1519., 1519., 1519., 1519., 1519., 1.51746167e+03, 1519., 1519., 1.51833667e+03, 1512., 1.51143103e+03, 1.51143677e+03, 1.50751245e+03, 1.51199939e+03, 1.50751392e+03, 1.51141345e+03, 1.51200085e+03, 1.51200269e+03, 1519., 1519., 1519., 1519., 1519., 1519., 1519., 1519., 1519., 1519., 1519., 1519., 1519., 1519., 1519., 1519., 1519., 1519., 1519., 1.52047839e+03, 1.52010193e+03, 1525., 1525., 1525., 1.52498828e+03, 1.52082837e+03, 1519., 1519., 1519., 1519., 1519., 1519., 1519., 1519., 1512., 1512., 1512., 1512., 1512., 1512., 1.51287500e+03, 1.51897437e+03, 1519., 1519., 1519., 1519., 1519., 1519., 1519., 1519., 1519., 1.51899658e+03, 1519., 1519., 1519., 1519., 1519., 1519., 1.51725000e+03, 1519., 1.51211194e+03, 1519., 1512., 1.51561365e+03, 1512., 1.51550342e+03, 1.51577002e+03, 1.51572217e+03, 1.51899829e+03, 1.51201709e+03, 1512., 1512., 1512., 1.51332703e+03, 1512., 1.51544531e+03, 1512., 1.51243750e+03, 1.51243774e+03, 1.51894458e+03, 1.51894482e+03, 1.51269385e+03, 1.51894238e+03, 1.51894238e+03, 1519., 1519., 1519., 1519., 1519., 1519., 1519., 1519.,
       1.52114636e+03, 1525., 1525., 1525., 1519., 1519., 1519., 1519., 1.51567004e+03, 1512., 1512., 1.51205469e+03, 1512., 1512., 1512., 1512., 1512., 1519., 1519., 1519., 1519., 1519., 1.52050000e+03, 1519., 1519., 1519., 1519., 1.51795007e+03, 1519., 1519., 1519., 1519., 1512., 1512., 1512., 1512., 1512., 1.51375000e+03, 1.51751135e+03, 1519., 1.52462500e+03, 1525., 1525., 1.52498828e+03, 1525., 1.52498828e+03, 1.52498828e+03, 1.51909375e+03, 1.51909375e+03, 1519., 1519., 1.51878125e+03, 1.51878101e+03, 1.51433838e+03, 1512., 1.51806250e+03, 1.51279663e+03, 1.51279663e+03, 1.51806226e+03, 1519., 1519., 1.51919067e+03, 1.52086731e+03, 1.51922583e+03, 1525., 1525., 1525., 1525., 1525., 1525., 1519., 1519., 1512., 1512., 1.51219141e+03, 1.51504089e+03, 1.51224609e+03, 1512., 1.51224609e+03, 1512., 1.51899316e+03, 1512., 1512., 1512., 1512., 1512., 1.51050000e+03, 1512., 1512., 1512., 1.51206152e+03, 1.51200684e+03, 1519., 1519., 1519., 1519., 1.51463831e+03, 1512., 1512., 1512., 1512., 1.51588721e+03, 1.51216833e+03, 1.51899976e+03, 1519., 1.51972400e+03, 1.52497632e+03, 1.52098975e+03, 1.52023975e+03, 1.51900293e+03, 1.52400232e+03, 1525., 1525., 1525., 1525., 1525., 1525., 1525., 1525., 1.52490625e+03, 1.52183630e+03, 1.52489563e+03, 1.52151025e+03, 1525., 1525., 1525., 1525., 1525., 1525., 1525., 1525., 1525., 1525., 1525., 1525., 1525., 1.52082812e+03, 1519., 1519., 1519., 1519., 1519., 1519., 1519., 1519., 1.51888379e+03, 1512., 1519., 1519., 1.51572437e+03, 1512., 1.51889062e+03, 1.51848035e+03, 1519., 1519., 1.51855566e+03, 1.51551807e+03, 1519., 1519., 1519., 1.51375427e+03, 1512., 1512., 1.51174146e+03, 1512., 1.51136060e+03, 1.51136658e+03, 1512., 1512., 1.51459424e+03, 1.51391687e+03, 1.51413464e+03, 1.51402576e+03, 1519., 1519., 1519., 1519., 1519., 1519., 1519., 1519., 1519., 1.51897266e+03, 1.51722266e+03, 1.51372180e+03, 1519., 1519., 1519., 1519., 1519., 1.51935193e+03, 1.52082837e+03, 1.52085181e+03, 1.51928149e+03, 1519., 1519., 1519., 1519., 1519., 1519., 1519., 1519., 1519., 1512., 1512., 1512., 1512., 1512., 1512., 1512., 1.51287500e+03, 1.51899316e+03, 1519., 1519., 1519., 1519., 1519., 1519., 1519., 1519., 1.51899988e+03, 1519., 1.51894531e+03, 1519., 1.51561108e+03, 1.51211108e+03, 1.51211108e+03, 1512., 1.51200256e+03, 1512., 1.51200256e+03, 1512., 1512., 1512., 1.51575293e+03, 1.51894250e+03, 1.51675488e+03, 1519., 1.51311792e+03, 1512., 1512., 1512., 1512., 1512., 1.51243750e+03, 1512., 1512., 1512., 1.51200684e+03, 1.51594629e+03, 1.51200684e+03, 1.51747913e+03, 1.51894238e+03, 1519., 1519., 1519., 1519., 1519., 1519., 1519., 1519.,
       1519., 1.51959985e+03, 1.51941223e+03, 1.51900146e+03, 1.51680493e+03, 1519., 1.51811731e+03, 1.51899255e+03, 1512., 1512., 1512., 1512., 1512., 1512., 1512., 1512., 1512., 1519., 1519., 1.52050000e+03, 1519., 1519., 1.52053589e+03, 1519., 1519., 1519., 1519., 1.51376624e+03, 1519., 1.51817212e+03, 1512., 1.51860950e+03, 1512., 1512., 1512., 1512., 1512., 1512., 1512., 1519., 1.52007898e+03, 1.52439441e+03, 1.52441919e+03, 1.52498828e+03, 1525., 1.52498828e+03, 1.52477710e+03, 1.51909375e+03, 1519., 1519., 1.51899976e+03, 1512., 1512., 1512., 1512., 1512., 1512., 1512., 1512., 1.51796045e+03, 1519., 1.51900024e+03, 1.51925806e+03, 1.51902368e+03, 1525., 1525., 1525., 1525., 1525., 1525., 1519., 1.51549219e+03, 1512., 1512., 1.51202734e+03, 1.51202734e+03, 1.51202734e+03, 1512., 1512., 1512., 1.51284814e+03, 1512., 1512., 1512., 1512., 1512., 1.50964282e+03, 1.50961877e+03, 1.50638086e+03, 1512., 1512., 1512., 1512., 1512., 1.51463672e+03, 1.51288269e+03, 1512., 1512., 1512., 1512., 1512., 1512., 1.51211279e+03, 1.51899976e+03, 1519., 1.51949036e+03, 1.51970056e+03, 1.52195288e+03, 1525., 1.52495154e+03, 1525., 1525., 1525., 1525., 1525., 1525., 1525., 1525., 1525., 1519., 1.51902344e+03, 1.52499377e+03, 1.52057178e+03, 1525., 1525., 1525., 1525., 1525., 1525., 1525., 1525., 1525., 1.52499878e+03, 1525., 1.52382104e+03, 1.52382153e+03, 1519., 1.51235596e+03, 1512., 1512., 1.51330566e+03, 1.51313623e+03, 1.51313623e+03, 1512., 1512., 1512., 1512., 1512., 1512., 1512., 1512., 1.51202051e+03, 1.51475854e+03, 1519., 1.51894531e+03, 1519., 1.51562305e+03, 1519., 1519., 1.51737732e+03, 1512., 1512., 1512., 1.50881030e+03, 1512., 1.50761060e+03, 1.50881201e+03, 1512., 1512., 1.51200122e+03, 1512., 1512., 1512., 1.51460095e+03, 1.51380469e+03, 1519., 1519., 1519., 1519., 1519., 1.51897266e+03, 1.51244434e+03, 1512., 1512., 1512., 1.51366541e+03, 1519., 1519., 1519., 1519., 1519., 1519., 1.51923462e+03, 1519., 1519., 1519., 1519., 1519., 1519., 1519., 1519., 1519., 1519., 1512., 1512., 1512., 1512., 1512., 1512., 1512., 1512., 1.51866125e+03, 1519., 1519., 1519., 1519., 1519., 1519., 1519., 1519., 1.51850427e+03, 1.51850415e+03, 1.51200684e+03, 1.51760156e+03, 1512., 1512., 1512., 1512., 1512., 1512., 1512., 1512., 1512., 1512., 1.51221875e+03, 1519., 1.51856226e+03, 1519., 1.51366614e+03, 1.51223950e+03, 1512., 1512., 1512., 1512., 1.51243750e+03, 1512., 1512., 1512., 1512., 1.51244434e+03, 1512., 1512., 1.51550684e+03, 1519., 1519., 1519., 1519., 1519., 1519., 1519., 1519.,
       1519., 1519., 1519., 1519., 1512., 1.51205469e+03, 1512., 1512., 1512., 1512., 1512., 1512., 1512., 1512., 1512., 1512., 1512., 1519., 1519., 1519., 1519., 1519., 1.52050000e+03, 1519., 1519., 1519., 1.51899939e+03, 1.51376624e+03, 1.51762549e+03, 1.51726624e+03, 1512., 1512., 1512., 1512., 1512., 1512., 1512., 1512., 1.51201404e+03, 1.51856250e+03, 1519., 1519., 1519., 1.52364575e+03, 1.52499976e+03, 1.52439624e+03, 1.52209741e+03, 1519., 1519., 1519., 1.51810425e+03, 1512., 1512., 1512., 1512., 1512., 1512., 1512., 1512., 1.51222241e+03, 1519., 1519., 1.51904712e+03, 1.51900024e+03, 1.52424414e+03, 1525., 1525., 1525., 1.52424414e+03, 1.52403320e+03, 1.51202734e+03, 1512., 1512., 1512., 1512., 1512., 1512., 1.50785620e+03, 1512., 1512., 1512., 1512., 1512., 1512., 1512., 1512., 1.50656250e+03, 1.50660938e+03, 1506., 1.50662000e+03, 1.50898828e+03, 1512., 1512., 1512., 1512., 1512., 1512., 1512., 1512., 1512., 1512., 1.51648438e+03, 1.51846594e+03, 1519., 1519., 1.52499988e+03, 1.52474036e+03, 1.52476538e+03, 1.52495312e+03, 1.52166895e+03, 1.52495300e+03, 1525., 1525., 1525., 1525., 1525., 1525., 1525., 1.52499854e+03, 1519., 1519., 1.51902344e+03, 1519., 1.51926013e+03, 1525., 1.52499414e+03, 1525., 1525., 1525., 1525., 1525., 1525., 1522., 1.52305933e+03, 1.51902783e+03, 1519., 1519., 1512., 1.51050000e+03, 1.51050000e+03, 1512., 1512., 1512., 1512., 1512., 1512., 1.51049414e+03, 1512., 1.51199414e+03, 1.50600342e+03, 1.50750903e+03, 1512., 1512., 1512., 1512., 1512., 1512., 1.51561279e+03, 1.51724316e+03, 1.51211279e+03, 1.51205469e+03, 1512., 1512., 1512., 1512., 1512., 1512., 1512., 1512., 1.51200110e+03, 1512., 1512., 1512., 1512., 1512., 1512., 1.51460107e+03, 1512., 1.51243750e+03, 1.51243750e+03, 1512., 1512., 1512., 1512., 1512., 1.51200024e+03, 1.51369604e+03, 1519., 1519., 1519., 1519., 1519., 1.51900024e+03, 1519., 1519., 1519., 1519., 1519., 1519., 1519., 1519., 1519., 1519., 1512., 1512., 1512., 1512., 1512., 1512., 1512., 1512., 1.51863232e+03, 1519., 1519., 1519., 1519., 1519., 1519., 1519., 1519., 1.51899646e+03, 1.51848975e+03, 1.51550000e+03, 1512., 1512., 1512., 1512., 1512., 1512., 1512., 1512., 1512., 1512., 1512., 1512., 1.51856226e+03, 1.51856079e+03, 1519., 1.51234668e+03, 1512., 1512., 1512., 1512., 1512., 1.51243835e+03, 1512., 1512., 1.51243750e+03, 1.51243750e+03, 1.51244434e+03, 1512., 1512., 1.51200684e+03, 1519., 1519., 1519., 1519., 1519., 1519., 1519., 1519.,
       1519., 1519., 1519., 1519., 1512., 1512., 1512., 1512., 1512., 1512., 1512., 1512., 1512., 1512., 1512., 1512., 1512., 1.51812500e+03, 1519., 1519., 1.51768726e+03, 1.51899976e+03, 1519., 1.51899976e+03, 1.51899976e+03, 1.51835999e+03, 1.51879749e+03, 1.51376624e+03, 1.51737915e+03, 1.51375171e+03, 1512., 1512., 1512., 1512., 1512., 1512., 1512., 1.51899316e+03, 1.51899316e+03, 1519., 1519., 1.52439587e+03, 1.52209448e+03, 1.52441919e+03, 1.52499976e+03, 1.52441968e+03, 1.52434741e+03, 1.51909668e+03, 1519., 1519., 1.51411023e+03, 1512., 1512., 1512., 1512., 1512., 1512., 1512., 1512., 1.51224634e+03, 1519., 1519., 1.51902368e+03, 1519., 1.51935181e+03, 1.52086365e+03, 1.51972729e+03, 1.51917639e+03, 1.51914062e+03, 1519., 1512., 1512., 1.50843665e+03, 1.51171277e+03, 1.50682520e+03, 1.50607349e+03, 1.50625781e+03, 1.50607031e+03, 1.51198816e+03, 1512., 1512., 1.51198828e+03, 1512., 1.51123828e+03, 1.51115625e+03, 1.51114453e+03, 1506., 1506., 1506., 1506., 1506., 1.50863489e+03, 1.50868176e+03, 1.50680688e+03, 1512., 1512., 1.51177710e+03, 1512., 1512., 1512., 1512., 1.51845312e+03, 1.51823779e+03, 1519., 1519., 1519., 1519., 1519., 1519., 1519., 1519., 1.52437878e+03, 1525., 1525., 1525., 1.52493958e+03, 1.52435339e+03, 1.52453821e+03, 1.51909473e+03, 1519., 1519., 1519., 1519., 1519., 1.52157776e+03, 1.51909375e+03, 1519., 1.52134619e+03, 1.52477966e+03, 1.51984521e+03, 1525., 1525., 1519., 1.52436877e+03, 1.52494629e+03, 1.52499341e+03, 1519., 1512., 1512., 1512., 1512., 1512., 1512., 1.51199414e+03, 1512., 1.51199414e+03, 1506., 1506., 1506., 1506., 1506., 1.50898743e+03, 1.51191187e+03, 1512., 1512., 1512., 1512., 1512., 1512., 1512., 1512., 1512., 1512., 1512., 1.51200085e+03, 1512., 1512., 1512., 1512., 1.51550000e+03, 1512., 1512., 1512., 1.51375000e+03, 1512., 1512., 1512., 1512., 1512., 1.51243750e+03, 1.51243750e+03, 1512., 1512., 1.51897180e+03, 1.51271802e+03, 1.51722266e+03, 1519., 1519., 1519., 1519., 1519., 1519., 1519., 1519., 1519., 1519., 1519., 1519., 1519., 1519., 1519., 1519., 1519., 1512., 1512., 1512., 1512., 1512., 1512., 1512., 1512., 1.51550000e+03, 1.51878113e+03, 1519., 1519., 1519., 1.51899988e+03, 1519., 1519., 1519., 1.51640234e+03, 1512., 1512., 1512., 1512., 1512., 1512., 1512., 1512., 1.51199707e+03, 1512., 1512., 1512., 1512., 1512., 1.51854858e+03, 1.51854858e+03, 1519., 1.51408984e+03, 1512., 1512., 1512., 1.51331335e+03, 1512., 1.51243750e+03, 1512., 1512., 1.51243750e+03, 1512., 1512., 1512., 1512., 1512., 1.51876599e+03, 1519., 1519., 1519., 1519., 1519., 1519., 1519.,
       1519., 1519., 1519., 1519., 1.51205469e+03, 1.51205469e+03, 1512., 1512., 1512., 1512., 1512., 1512., 1512., 1512., 1512., 1512., 1512., 1.51210938e+03, 1.51219238e+03, 1.51391406e+03, 1512., 1.51375000e+03, 1.51383289e+03, 1.51375000e+03, 1.51376453e+03, 1.51375000e+03, 1.51376367e+03, 1.51375000e+03, 1.51375256e+03, 1512., 1512., 1512., 1512., 1512., 1512., 1512., 1512., 1.51200024e+03, 1.51200024e+03, 1.51899316e+03, 1519., 1519., 1519., 1519., 1.51900073e+03, 1519., 1519., 1519., 1519., 1.51867578e+03, 1512., 1512., 1512., 1512., 1512., 1512., 1512., 1512., 1512., 1512., 1519., 1519., 1519., 1519., 1519., 1519., 1.51812500e+03, 1519., 1.51615027e+03, 1.51259326e+03, 1506., 1.50602405e+03, 1506., 1506., 1506., 1506., 1506., 1506., 1.50607080e+03, 1.50898230e+03, 1512., 1.50672803e+03, 1512., 1.50663501e+03, 1.50813538e+03, 1.50960950e+03, 1506., 1506., 1506., 1506., 1506., 1506., 1506., 1.50605273e+03, 1.51181250e+03, 1512., 1.51140186e+03, 1.51140173e+03, 1.51162476e+03, 1512., 1512., 1512., 1512., 1.51763281e+03, 1519., 1519., 1519., 1.51894519e+03, 1519., 1.51246594e+03, 1.51805603e+03, 1.51871265e+03, 1519., 1519., 1519., 1519., 1519., 1519., 1519., 1519., 1519., 1519., 1519., 1519., 1.52053601e+03, 1.51900073e+03, 1519., 1519., 1519., 1519., 1.52499951e+03, 1.52475842e+03, 1519., 1519., 1.51975439e+03, 1.51909375e+03, 1519., 1512., 1.51003381e+03, 1.50600110e+03, 1.51199414e+03, 1.51049707e+03, 1.50621130e+03, 1506., 1506., 1506., 1506., 1506., 1506., 1506., 1506., 1.51196484e+03, 1.51191113e+03, 1512., 1512., 1512., 1.51198242e+03, 1512., 1512., 1512., 1512., 1512., 1512., 1512., 1512., 1512., 1512., 1512., 1512., 1.51485742e+03, 1512., 1512., 1512., 1.51375000e+03, 1512., 1512., 1512., 1512., 1512., 1512., 1.51243750e+03, 1512., 1512., 1519., 1.51897180e+03, 1519., 1.51809424e+03, 1519., 1.51812158e+03, 1.51899658e+03, 1519., 1.51898242e+03, 1.51418359e+03, 1519., 1.51898242e+03, 1.51375000e+03, 1.51866968e+03, 1519., 1519., 1519., 1519., 1519., 1519., 1512., 1512., 1512., 1512., 1512., 1512., 1512., 1512., 1512., 1.51200171e+03, 1.51863733e+03, 1519., 1.51889062e+03, 1.51820996e+03, 1519., 1519., 1.51832471e+03, 1512., 1512., 1512., 1512., 1512., 1512., 1512., 1512., 1512., 1.51199707e+03, 1512., 1512., 1512., 1512., 1512., 1512., 1512., 1.51897070e+03, 1512., 1512., 1512., 1512., 1512., 1512., 1512., 1512., 1512., 1512., 1512., 1512., 1.51199976e+03, 1.51198804e+03, 1512., 1512., 1.51876733e+03, 1519., 1.51898633e+03, 1519., 1519., 1519., 1519.,
       1519., 1519., 1519., 1519., 1512., 1512., 1512., 1512., 1512., 1512., 1512., 1512., 1512., 1512., 1512., 1512., 1512., 1512., 1512., 1512., 1512., 1512., 1512., 1512., 1512., 1512., 1.51376367e+03, 1.51376367e+03, 1.51376624e+03, 1512., 1512., 1512., 1512., 1512., 1512., 1512., 1512., 1512., 1512., 1512., 1.51375110e+03, 1.51876025e+03, 1.51375085e+03, 1.51876758e+03, 1519., 1519., 1.51878125e+03, 1.51876733e+03, 1.51899988e+03, 1.51375391e+03, 1512., 1512., 1512., 1512., 1512., 1512., 1512., 1512., 1512., 1512., 1519., 1.51812158e+03, 1519., 1.51461902e+03, 1.51461218e+03, 1519., 1.51461902e+03, 1.51264343e+03, 1.51200024e+03, 1512., 1506., 1506., 1506., 1506., 1506., 1506., 1506., 1506., 1506., 1.50604688e+03, 1506., 1506., 1.50618750e+03, 1506., 1506., 1.51114392e+03, 1.50618750e+03, 1506., 1506., 1.50618750e+03, 1.50623438e+03, 1.50600659e+03, 1.50600659e+03, 1506., 1.51142432e+03, 1512., 1.51143713e+03, 1.51126111e+03, 1.51140039e+03, 1512., 1.51199951e+03, 1512., 1512., 1512., 1.51899939e+03, 1519., 1519., 1.51872632e+03, 1519., 1519., 1519., 1.51898633e+03, 1519., 1519., 1519., 1519., 1.51898633e+03, 1.51898633e+03, 1519., 1519., 1519., 1519., 1519., 1519., 1.51900012e+03, 1.52051257e+03, 1519., 1.51899951e+03, 1.51899939e+03, 1.51899939e+03, 1519., 1519., 1.51899292e+03, 1.51848706e+03, 1.51899976e+03, 1519., 1519., 1.51199390e+03, 1506., 1506., 1.51049097e+03, 1.51049707e+03, 1.50656274e+03, 1506., 1506., 1506., 1.50425000e+03, 1.50425000e+03, 1.50415430e+03, 1506., 1506., 1.50610291e+03, 1.50825317e+03, 1.51192371e+03, 1.50684692e+03, 1.50609692e+03, 1506., 1.50900317e+03, 1.51001221e+03, 1.50926208e+03, 1512., 1.50936768e+03, 1.50927319e+03, 1512., 1512., 1.50899963e+03, 1.50897595e+03, 1.50896631e+03, 1.50859131e+03, 1512., 1512., 1512., 1512., 1512., 1512., 1512., 1512., 1512., 1512., 1512., 1.51547168e+03, 1.51266711e+03, 1.51897266e+03, 1519., 1519., 1519., 1519., 1519., 1.51767725e+03, 1.51241296e+03, 1.51241296e+03, 1.51200024e+03, 1.51200024e+03, 1.51383203e+03, 1512., 1512., 1.51375684e+03, 1519., 1519., 1519., 1519., 1519., 1519., 1512., 1512., 1512., 1512., 1512., 1512., 1512., 1512., 1512., 1512., 1512., 1512., 1512., 1512., 1.51821704e+03, 1.51821704e+03, 1512., 1512., 1512., 1512., 1512., 1512., 1512., 1512., 1512., 1512., 1.51199707e+03, 1.51199707e+03, 1512., 1512., 1512., 1512., 1512., 1512., 1.51200049e+03, 1512., 1512., 1512., 1512., 1512., 1512., 1512., 1512., 1512., 1512., 1512., 1512., 1.51199976e+03, 1.50950098e+03, 1.51198804e+03, 1512., 1.51728931e+03, 1.51789185e+03, 1.51769092e+03, 1.51884277e+03, 1.51897949e+03, 1.51897607e+03, 1.51725024e+03,
       1519., 1519., 1519., 1519., 1512., 1512., 1512., 1512., 1512., 1512., 1.51049414e+03, 1512., 1512., 1512., 1512., 1512., 1512., 1512., 1512., 1512., 1512., 1512., 1512., 1512., 1512., 1512., 1512., 1512., 1512., 1512., 1512., 1512., 1512., 1512., 1512., 1512., 1512., 1512., 1512., 1512., 1512., 1512., 1512., 1512., 1.51287939e+03, 1.51211377e+03, 1.51210938e+03, 1.51211023e+03, 1.51780334e+03, 1.51386328e+03, 1512., 1512., 1512., 1512., 1512., 1512., 1512., 1512., 1512., 1512., 1.51811816e+03, 1.51811816e+03, 1.51899316e+03, 1.51286206e+03, 1.51210962e+03, 1.51286206e+03, 1.51213696e+03, 1512., 1512., 1512., 1506., 1506., 1506., 1506., 1506., 1506., 1506., 1506., 1506., 1506., 1506., 1506., 1506., 1506., 1506., 1.50661157e+03, 1.50623438e+03, 1506., 1506., 1.50623438e+03, 1.50623438e+03, 1.50776514e+03, 1506., 1506., 1.50604700e+03, 1.51181201e+03, 1.51143701e+03, 1.50602356e+03, 1.50600598e+03, 1.50987317e+03, 1.50609387e+03, 1.51195312e+03, 1.51176538e+03, 1512., 1512., 1519., 1.51746863e+03, 1.51375256e+03, 1.51484326e+03, 1.51200024e+03, 1519., 1.51378870e+03, 1.51395337e+03, 1.51344690e+03, 1.51899829e+03, 1.51899780e+03, 1.51813525e+03, 1.51726025e+03, 1.51899805e+03, 1.51653662e+03, 1519., 1519., 1.51856250e+03, 1519., 1.51902356e+03, 1.51901257e+03, 1.51899951e+03, 1.51817212e+03, 1.51847290e+03, 1.51726379e+03, 1.51899939e+03, 1.51899976e+03, 1.51759790e+03, 1512., 1.51899976e+03, 1519., 1.51899976e+03, 1.50759412e+03, 1.50599976e+03, 1506., 1506., 1506., 1506., 1499., 1499., 1499., 1499., 1499., 1499., 1506., 1506., 1.50759863e+03, 1.50759668e+03, 1.50834875e+03, 1.50750293e+03, 1.50609692e+03, 1506., 1.50900317e+03, 1.50919092e+03, 1506., 1.50974268e+03, 1.50626147e+03, 1.50627905e+03, 1.50749927e+03, 1.50742700e+03, 1506., 1506., 1506., 1506., 1.50850220e+03, 1.50852576e+03, 1512., 1512., 1512., 1512., 1.50762427e+03, 1512., 1.50820312e+03, 1512., 1512., 1512., 1512., 1.51634497e+03, 1519., 1519., 1519., 1.51713367e+03, 1.51200024e+03, 1.51200024e+03, 1512., 1512., 1512., 1512., 1512., 1512., 1512., 1512., 1.51202051e+03, 1519., 1519., 1519., 1519., 1519., 1512., 1512., 1512., 1512., 1512., 1512., 1512., 1512., 1512., 1512., 1512., 1512., 1512., 1512., 1.51727734e+03, 1.51853833e+03, 1512., 1512., 1512., 1512., 1512., 1512., 1512., 1512., 1512., 1512., 1.51199707e+03, 1.51199695e+03, 1512., 1512., 1512., 1512., 1512., 1512., 1.51200049e+03, 1512., 1512., 1512., 1512., 1512., 1512., 1512., 1512., 1512., 1512., 1512., 1512., 1.51199976e+03, 1.50954858e+03, 1.50950098e+03, 1.51198804e+03, 1.51725000e+03, 1.51725000e+03, 1.51375000e+03, 1512., 1.51375000e+03, 1.51375000e+03, 1512. ]
