%YAML:1.0
table_background_depth_map: !!opencv-matrix
   rows: 32
   cols: 257
   dt: f
   data: [ 1.51893848e+03, 1512., 1512., 1.51255078e+03, 1519., 1.51899231e+03, 1519., 1519., 1519., 1519., 1519., 1519., 1519., 1519., 1519., 1.51897266e+03, 1.51694556e+03, 1.51299341e+03, 1.51288232e+03, 1.51650708e+03, 1.51694482e+03, 1.51878125e+03, 1.51201196e+03, 1512., 1512., 1.51550000e+03, 1512., 1512., 1512., 1512., 1.51594116e+03, 1.51897266e+03, 1.51895251e+03, 1.51897168e+03, 1.51897241e+03, 1.51897119e+03, 1.51853198e+03, 1.51765698e+03, 1.51210938e+03, 1512., 1512., 1512., 1512., 1512., 1512., 1512., 1512., 1512., 1512., 1512., 1512., 1512., 1512., 1512., 1512., 1512., 1512., 1512., 1512., 1506., 1506., 1506., 1506., 1506., 1506., 1506., 1506., 1506., 1506., 1506., 1506., 1506., 1506., 1506., 1506., 1.50904980e+03, 1506., 1.51190039e+03, 1.51190039e+03, 1512., 1512., 1512., 1.51057593e+03, 1506., 1506., 1506., 1506., 1506., 1506., 1506., 1506., 1506., 1506., 1506., 1506., 1506., 1506., 1506., 1506., 1506., 1506., 1506., 1506., 1506., 1506., 1506., 1506., 1506., 1506., 1506., 1506., 1506., 1506., 1.50545142e+03, 1499., 1499., 1499., 1.50199146e+03, 1.49933887e+03, 1499., 1499., 1.49932812e+03, 1.49939465e+03, 1.49939038e+03, 1.50425000e+03, 1506., 1506., 1506., 1506., 1506., 1506., 1506., 1506., 1506., 1506., 1506., 1506., 1506., 1506., 1506., 1506., 1506., 1506., 1506., 1506., 1506., 1506., 1506., 1.50621106e+03, 1.50602344e+03, 1506., 1506., 1506., 1506., 1506., 1506., 1506., 1506., 1.50578125e+03, 1.50578125e+03, 1506., 1.50578076e+03, 1506., 1.50401709e+03, 1499., 1.50425000e+03, 1506., 1506., 1506., 1506., 1506., 1506., 1506., 1506., 1506., 1506., 1506., 1506., 1506., 1.50599756e+03, 1.50162427e+03, 1.49927344e+03, 1499., 1499., 1499., 1.49924609e+03, 1499., 1.50291284e+03, 1.50269165e+03, 1506., 1506., 1506., 1506., 1.50424646e+03, 1506., 1.50599658e+03, 1.50211365e+03, 1.50561377e+03, 1506., 1506., 1506., 1.50750000e+03, 1.50750000e+03, 1506., 1506., 1506., 1506., 1506., 1506., 1506., 1506., 1506., 1506., 1506., 1506., 1506., 1506., 1506., 1506., 1506., 1506., 1506., 1506., 1506., 1506., 1506., 1506., 1506., 1506., 1506., 1506., 1506., 1506., 1506., 1506., 1506., 1506., 1506., 1506., 1506., 1506., 1506., 1506., 1506., 1506., 1506., 1506., 1506., 1506., 1.50642188e+03, 1506., 1506., 1506., 1506., 1506., 1506., 1506.,
       1.51802222e+03, 1512., 1512., 1.51200012e+03, 1.51458801e+03, 1519., 1519., 1519., 1519., 1519., 1519., 1519., 1519., 1.51898633e+03, 1519., 1.51897266e+03, 1519., 1.51298438e+03, 1.51288184e+03, 1.51650708e+03, 1.51299170e+03, 1.51878125e+03, 1.51200684e+03, 1.51200684e+03, 1512., 1.51594971e+03, 1.51243774e+03, 1.51244116e+03, 1.51878760e+03, 1512., 1.51681628e+03, 1519., 1.51897266e+03, 1.51897180e+03, 1.51897241e+03, 1.51765356e+03, 1.51896948e+03, 1.51234204e+03, 1.51210938e+03, 1512., 1512., 1512., 1512., 1512., 1512., 1512., 1512., 1512., 1512., 1512., 1512., 1512., 1512., 1512., 1512., 1512., 1512., 1512., 1512., 1506., 1506., 1.50206250e+03, 1506., 1506., 1506., 1506., 1506., 1506., 1506., 1506., 1506., 1506., 1506., 1506., 1506., 1506., 1506., 1506., 1506., 1.50776245e+03, 1.51199414e+03, 1.50602344e+03, 1506., 1506., 1506., 1506., 1506., 1506., 1506., 1506., 1506., 1506., 1506., 1506., 1506., 1506., 1506., 1506., 1506., 1506., 1506., 1506., 1506., 1506., 1506., 1506., 1506., 1506., 1506., 1.50577954e+03, 1506., 1.50566931e+03, 1.50342004e+03, 1.50342004e+03, 1499., 1499., 1499., 1499., 1499., 1499., 1.49932812e+03, 1499., 1.49939368e+03, 1.49938342e+03, 1506., 1506., 1.50601245e+03, 1506., 1506., 1506., 1506., 1506., 1506., 1506., 1506., 1506., 1506., 1506., 1506., 1506., 1506., 1506., 1506., 1506., 1506., 1506., 1.50205225e+03, 1506., 1506., 1506., 1506., 1506., 1506., 1506., 1506., 1506., 1506., 1.50567188e+03, 1499., 1499., 1499., 1499., 1499., 1499., 1499., 1506., 1506., 1506., 1506., 1506., 1506., 1506., 1506., 1506., 1506., 1506., 1506., 1506., 1.50334277e+03, 1.49927344e+03, 1499., 1499., 1.49240344e+03, 1.49418347e+03, 1.49205469e+03, 1499., 1499., 1499., 1499., 1.50512158e+03, 1506., 1506., 1506., 1.50295874e+03, 1.50388843e+03, 1499., 1499., 1.49987500e+03, 1.50558545e+03, 1506., 1506., 1506., 1.50750000e+03, 1506., 1506., 1506., 1506., 1506., 1506., 1506., 1506., 1506., 1506., 1506., 1506., 1506., 1506., 1506., 1506., 1506., 1506., 1.50404480e+03, 1506., 1.50359607e+03, 1.50582214e+03, 1.50587695e+03, 1.50410986e+03, 1506., 1506., 1506., 1506., 1506., 1506., 1506., 1506., 1506., 1506., 1506., 1506., 1506., 1506., 1506., 1506., 1506., 1506., 1506., 1506., 1506., 1506., 1506., 1506., 1506., 1506., 1506., 1506., 1506., 1506.,
       1.51889746e+03, 1.51255164e+03, 1.51255090e+03, 1.51899316e+03, 1519., 1519., 1519., 1519., 1519., 1519., 1519., 1519., 1519., 1.51849048e+03, 1519., 1.51890088e+03, 1.51889990e+03, 1.51287549e+03, 1.51287500e+03, 1.51288232e+03, 1.51299170e+03, 1519., 1.51247510e+03, 1.51203418e+03, 1512., 1.51550708e+03, 1.51200024e+03, 1.51200024e+03, 1.51200122e+03, 1512., 1512., 1512., 1512., 1512., 1512., 1512., 1512., 1512., 1512., 1512., 1512., 1512., 1512., 1512., 1512., 1512., 1512., 1512., 1512., 1512., 1512., 1512., 1512., 1512., 1512., 1.51199854e+03, 1.50914673e+03, 1.51140820e+03, 1512., 1.50544165e+03, 1.50114819e+03, 1.49905469e+03, 1.50512500e+03, 1506., 1506., 1506., 1506., 1506., 1506., 1506., 1506., 1506., 1506., 1506., 1506., 1506., 1506., 1506., 1506., 1506., 1506., 1506., 1506., 1506., 1506., 1506., 1506., 1506., 1506., 1506., 1506., 1506., 1506., 1506., 1506., 1506., 1506., 1506., 1506., 1506., 1506., 1506., 1506., 1506., 1506., 1.50599817e+03, 1506., 1506., 1.50577954e+03, 1.49900342e+03, 1.49900354e+03, 1499., 1499., 1.49900342e+03, 1499., 1499., 1499., 1499., 1499., 1499., 1499., 1499., 1.49938281e+03, 1.49939453e+03, 1506., 1506., 1.51051001e+03, 1506., 1506., 1506., 1506., 1506., 1506., 1506., 1506., 1506., 1506., 1506., 1506., 1506., 1506., 1506., 1.50587952e+03, 1506., 1506., 1.50599915e+03, 1.50248950e+03, 1.49921924e+03, 1.50271924e+03, 1.50511389e+03, 1506., 1506., 1506., 1506., 1506., 1506., 1.50577954e+03, 1499., 1499., 1499., 1.49878125e+03, 1499., 1499., 1499., 1499., 1506., 1506., 1506., 1506., 1506., 1506., 1506., 1506., 1506., 1506., 1506., 1506., 1.50425000e+03, 1.50425000e+03, 1.49921875e+03, 1499., 1.49899976e+03, 1.49205469e+03, 1.49241797e+03, 1492., 1499., 1.49241162e+03, 1499., 1499., 1499., 1.50446204e+03, 1.50075000e+03, 1.50501135e+03, 1499., 1499., 1499., 1499., 1499., 1.49988196e+03, 1.50561279e+03, 1.50578125e+03, 1.50578125e+03, 1506., 1506., 1506., 1506., 1506., 1506., 1506., 1506., 1506., 1506., 1506., 1506., 1506., 1506., 1506., 1506., 1506., 1506., 1506., 1.49921899e+03, 1.50404089e+03, 1499., 1499., 1499., 1499., 1.50239062e+03, 1506., 1506., 1506., 1506., 1506., 1506., 1506., 1506., 1506., 1506., 1.50825232e+03, 1506., 1506., 1506., 1506., 1506., 1506., 1506., 1506., 1506., 1506., 1506., 1506., 1506., 1506., 1506., 1506., 1506., 1506.,
       1.51551392e+03, 1.51562720e+03, 1.51550391e+03, 1519., 1519., 1519., 1519., 1.51898523e+03, 1.51898523e+03, 1.51804993e+03, 1.51898633e+03, 1.51892627e+03, 1.51892505e+03, 1512., 1.51649292e+03, 1.51692944e+03, 1.51715259e+03, 1.51331323e+03, 1512., 1512., 1512., 1.51878125e+03, 1.51352856e+03, 1.51201025e+03, 1512., 1512., 1512., 1512., 1512., 1512., 1512., 1512., 1512., 1512., 1512., 1512., 1512., 1512., 1512., 1512., 1512., 1512., 1512., 1512., 1512., 1512., 1512., 1512., 1512., 1512., 1.51188660e+03, 1.51199976e+03, 1.51199976e+03, 1.51190588e+03, 1.50750586e+03, 1.50777551e+03, 1506., 1506., 1.50773438e+03, 1499., 1499., 1499., 1.49938379e+03, 1.50465674e+03, 1.50159766e+03, 1506., 1506., 1506., 1506., 1506., 1506., 1506., 1506., 1506., 1506., 1506., 1506., 1506., 1506., 1506., 1506., 1506., 1506., 1506., 1506., 1.50020361e+03, 1.49910938e+03, 1.50023267e+03, 1.50064282e+03, 1.50241455e+03, 1.50245557e+03, 1506., 1506., 1506., 1506., 1506., 1506., 1506., 1.50498145e+03, 1506., 1506., 1506., 1506., 1506., 1.50512317e+03, 1.50477368e+03, 1.50599829e+03, 1.50577954e+03, 1.50220410e+03, 1499., 1499., 1499., 1499., 1499., 1499., 1.49894531e+03, 1.49857446e+03, 1499., 1.49899829e+03, 1.49324231e+03, 1.49856250e+03, 1.49326965e+03, 1499., 1499., 1.50206067e+03, 1506., 1506., 1506., 1506., 1506., 1506., 1506., 1506., 1506., 1506., 1506., 1506., 1506., 1506., 1506., 1.50599255e+03, 1.50185938e+03, 1.49923242e+03, 1.49923242e+03, 1.49923242e+03, 1.49938281e+03, 1.50597949e+03, 1499., 1499., 1499., 1.50277393e+03, 1506., 1506., 1506., 1506., 1506., 1.50588843e+03, 1499., 1499., 1499., 1.49878125e+03, 1499., 1499., 1499., 1.49900183e+03, 1506., 1506., 1506., 1506., 1506., 1506., 1506., 1506., 1506., 1506., 1506., 1.50337012e+03, 1.50334277e+03, 1.49973315e+03, 1499., 1.49899976e+03, 1.49462427e+03, 1492., 1.49203418e+03, 1492., 1499., 1499., 1499., 1499., 1499., 1499., 1499., 1499., 1499., 1499., 1499., 1499., 1.49889062e+03, 1.49987500e+03, 1.49988367e+03, 1.50572314e+03, 1.50167480e+03, 1.50578125e+03, 1506., 1506., 1506., 1506., 1506., 1506., 1506., 1506., 1506., 1506., 1506., 1506., 1506., 1506., 1506., 1506., 1506., 1506., 1499., 1499., 1499., 1499., 1499., 1499., 1.50015100e+03, 1506., 1506., 1506., 1506., 1506., 1506., 1506., 1506., 1506., 1506., 1506., 1506., 1506., 1506., 1506., 1506., 1506., 1506., 1506., 1506., 1506., 1506., 1506., 1506., 1506., 1506., 1506., 1506., 1506.,
       1519., 1519., 1519., 1519., 1519., 1519., 1519., 1519., 1.51898608e+03, 1.51794275e+03, 1.51619360e+03, 1.51243750e+03, 1512., 1512., 1512., 1.51287500e+03, 1.51342944e+03, 1512., 1512., 1512., 1512., 1.51703113e+03, 1.51244775e+03, 1512., 1512., 1512., 1512., 1512., 1512., 1512., 1512., 1512., 1512., 1512., 1512., 1512., 1512., 1512., 1512., 1512., 1.51197656e+03, 1512., 1512., 1512., 1512., 1512., 1512., 1512., 1512., 1512., 1.51115576e+03, 1.51190576e+03, 1.51199951e+03, 1.51190344e+03, 1506., 1506., 1.50886499e+03, 1.50708289e+03, 1506., 1499., 1499., 1499., 1.49939771e+03, 1.50159375e+03, 1.50512500e+03, 1506., 1506., 1506., 1506., 1506., 1506., 1506., 1506., 1506., 1506., 1506., 1506., 1506., 1506., 1506., 1506., 1506., 1506., 1506., 1506., 1499., 1499., 1.49910938e+03, 1499., 1499., 1499., 1.50244788e+03, 1506., 1506., 1.50465332e+03, 1506., 1506., 1506., 1.50454395e+03, 1.50512329e+03, 1.50586157e+03, 1.50512329e+03, 1506., 1.50511633e+03, 1499., 1499., 1.49900342e+03, 1499., 1499., 1499., 1499., 1.49899829e+03, 1.49861548e+03, 1499., 1.49894360e+03, 1.49331946e+03, 1.49244434e+03, 1.49707031e+03, 1.49353491e+03, 1492., 1.49321497e+03, 1492., 1.49326880e+03, 1499., 1.50203235e+03, 1506., 1506., 1506., 1506., 1506., 1506., 1506., 1506., 1506., 1.50584253e+03, 1.50587695e+03, 1506., 1506., 1506., 1506., 1506., 1.50550391e+03, 1.50550317e+03, 1.49901367e+03, 1.49901367e+03, 1499., 1492., 1.49751172e+03, 1499., 1499., 1499., 1.50456885e+03, 1.50555542e+03, 1506., 1506., 1506., 1.50544409e+03, 1499., 1499., 1499., 1499., 1499., 1499., 1499., 1.50050659e+03, 1506., 1506., 1506., 1506., 1506., 1506., 1506., 1506., 1506., 1506., 1.50424915e+03, 1.49950757e+03, 1499., 1499., 1499., 1.49284106e+03, 1.49240332e+03, 1492., 1492., 1492., 1.49812500e+03, 1.49768408e+03, 1499., 1499., 1499., 1499., 1499., 1499., 1499., 1499., 1.49883167e+03, 1499., 1499., 1499., 1.49988232e+03, 1.50167529e+03, 1.49988196e+03, 1.50578125e+03, 1506., 1506., 1506., 1506., 1506., 1506., 1506., 1506., 1506., 1506., 1506., 1506., 1506., 1506., 1506., 1506., 1506., 1506., 1499., 1499., 1499., 1499., 1499., 1499., 1499., 1.50031177e+03, 1506., 1.50206189e+03, 1506., 1506., 1506., 1506., 1506., 1506., 1506., 1506., 1506., 1506., 1506., 1506., 1506., 1506., 1506., 1506., 1506., 1506., 1.50598633e+03, 1.50598218e+03, 1.49993066e+03, 1.50598145e+03, 1506., 1.49905469e+03, 1.49992969e+03, 1.50031262e+03,
       1519., 1519., 1519., 1519., 1519., 1519., 1519., 1519., 1.51898523e+03, 1.51224658e+03, 1.51225342e+03, 1512., 1512., 1512., 1512., 1512., 1512., 1512., 1512., 1512., 1512., 1512., 1512., 1512., 1512., 1512., 1512., 1512., 1512., 1512., 1512., 1512., 1512., 1512., 1512., 1.50784595e+03, 1512., 1.51122363e+03, 1512., 1.51159839e+03, 1.51197656e+03, 1.51197656e+03, 1512., 1512., 1512., 1.51199976e+03, 1.51190601e+03, 1512., 1.51190601e+03, 1.51190601e+03, 1.50623438e+03, 1.50623438e+03, 1.50773438e+03, 1506., 1506., 1506., 1.51196387e+03, 1.50708105e+03, 1.50708142e+03, 1499., 1499., 1499., 1499., 1.49928748e+03, 1499., 1499., 1.50588879e+03, 1.50583582e+03, 1506., 1506., 1.50589062e+03, 1.50589050e+03, 1506., 1506., 1506., 1506., 1506., 1506., 1506., 1506., 1506., 1.50286243e+03, 1.50599915e+03, 1499., 1499., 1499., 1499., 1499., 1499., 1499., 1499., 1.49900049e+03, 1.50247607e+03, 1506., 1506., 1506., 1506., 1506., 1.50277905e+03, 1.50512329e+03, 1.50588892e+03, 1506., 1506., 1.50501343e+03, 1499., 1499., 1.49944116e+03, 1.49900342e+03, 1499., 1499., 1499., 1.49544360e+03, 1.49894360e+03, 1.49894360e+03, 1.49333337e+03, 1.49243750e+03, 1492., 1492., 1492., 1492., 1492., 1492., 1.49329700e+03, 1499., 1.50201172e+03, 1.50206079e+03, 1506., 1.50599829e+03, 1.50205225e+03, 1.50167651e+03, 1.49900342e+03, 1.50252112e+03, 1.49900684e+03, 1.50250342e+03, 1499., 1.49988550e+03, 1499., 1.50403784e+03, 1.50592456e+03, 1506., 1.50359546e+03, 1.49900085e+03, 1.49900171e+03, 1499., 1499., 1499., 1492., 1.49202734e+03, 1499., 1499., 1499., 1499., 1.50450000e+03, 1.50599316e+03, 1506., 1506., 1.50339307e+03, 1499., 1499., 1499., 1499., 1499., 1499., 1499., 1.49900098e+03, 1506., 1506., 1506., 1506., 1.50578125e+03, 1506., 1506., 1506., 1506., 1506., 1.50424915e+03, 1.50294434e+03, 1499., 1499., 1499., 1.49812390e+03, 1499., 1.49390735e+03, 1.49378467e+03, 1.49378418e+03, 1499., 1499., 1499., 1499., 1499., 1499., 1.49899829e+03, 1499., 1499., 1.49889062e+03, 1.49866760e+03, 1.49867188e+03, 1.49861719e+03, 1.49883594e+03, 1499., 1499., 1.49834375e+03, 1499., 1499., 1499., 1499., 1.50257959e+03, 1.50432861e+03, 1.49900684e+03, 1.49907874e+03, 1499., 1499., 1499., 1.50425000e+03, 1506., 1.50425000e+03, 1506., 1506., 1506., 1.50422266e+03, 1.50382251e+03, 1499., 1.49688074e+03, 1.49638159e+03, 1.49709937e+03, 1.49287817e+03, 1.49897266e+03, 1499., 1.50017163e+03, 1.50206177e+03, 1.50249951e+03, 1506., 1506., 1506., 1506., 1506., 1506., 1506., 1506., 1506., 1506., 1506., 1506., 1506., 1506., 1506., 1506., 1506., 1506., 1506., 1506., 1.50595740e+03, 1.50059448e+03, 1.49905469e+03, 1499., 1499., 1499.,
       1519., 1519., 1519., 1519., 1519., 1519., 1519., 1.51487512e+03, 1512., 1512., 1512., 1512., 1512., 1512., 1512., 1512., 1512., 1512., 1512., 1512., 1512., 1512., 1512., 1512., 1.51181104e+03, 1512., 1512., 1512., 1512., 1.50914441e+03, 1506., 1.50614954e+03, 1.51087354e+03, 1.50784595e+03, 1.50784595e+03, 1506., 1.50764819e+03, 1.50604688e+03, 1.50764062e+03, 1.50614062e+03, 1.51084448e+03, 1.51064526e+03, 1.51195862e+03, 1.51195898e+03, 1.51050439e+03, 1.51181775e+03, 1512., 1512., 1.51190601e+03, 1.51199976e+03, 1.50960986e+03, 1.51199976e+03, 1.51199976e+03, 1.51115076e+03, 1506., 1506., 1.51197559e+03, 1.51008105e+03, 1.51008862e+03, 1499., 1499., 1499., 1499., 1499., 1499., 1499., 1499., 1499., 1.49901416e+03, 1.50404517e+03, 1499., 1499., 1.50588293e+03, 1506., 1.50422363e+03, 1506., 1.50293835e+03, 1506., 1506., 1.50599829e+03, 1.49998450e+03, 1499., 1.49933496e+03, 1499., 1499., 1499., 1499., 1499., 1499., 1499., 1499., 1.50578345e+03, 1.50248975e+03, 1.50599658e+03, 1.50228296e+03, 1.50456787e+03, 1506., 1506., 1.49927600e+03, 1.50282544e+03, 1.49946167e+03, 1.50479602e+03, 1.50476123e+03, 1.49907178e+03, 1499., 1499., 1.49900366e+03, 1.49900366e+03, 1499., 1499., 1499., 1499., 1.49861548e+03, 1.49894360e+03, 1.49331946e+03, 1492., 1492., 1492., 1492., 1492., 1492., 1.48899988e+03, 1492., 1.49548621e+03, 1.50075000e+03, 1.50076709e+03, 1.50184192e+03, 1.50178662e+03, 1499., 1.49902051e+03, 1.50567188e+03, 1.50578125e+03, 1.50578125e+03, 1.50386621e+03, 1.50383899e+03, 1506., 1.50561719e+03, 1.49901343e+03, 1.50545923e+03, 1506., 1.50362769e+03, 1.49927429e+03, 1.50250000e+03, 1499., 1499., 1499., 1492., 1492., 1.49899573e+03, 1499., 1499., 1499., 1.49903076e+03, 1.50599316e+03, 1506., 1506., 1499., 1499., 1.49703101e+03, 1499., 1499., 1499., 1499., 1499., 1499., 1.50042383e+03, 1.50403125e+03, 1.50578125e+03, 1.50578125e+03, 1.50293750e+03, 1.50578125e+03, 1506., 1506., 1.50250049e+03, 1.50401672e+03, 1.50297217e+03, 1499., 1499., 1499., 1499., 1.49461877e+03, 1499., 1.49202051e+03, 1.49378418e+03, 1.49202734e+03, 1.49812500e+03, 1.49740894e+03, 1.49746533e+03, 1499., 1499., 1499., 1.49877905e+03, 1499., 1.49889062e+03, 1.49889062e+03, 1.49866589e+03, 1.49861719e+03, 1.49861279e+03, 1.49861719e+03, 1.49889062e+03, 1499., 1.49478906e+03, 1499., 1499., 1499., 1499., 1499., 1499., 1499., 1499., 1499., 1499., 1.49700391e+03, 1499., 1.50261621e+03, 1.49911621e+03, 1.49988208e+03, 1.50251306e+03, 1.50366187e+03, 1499., 1499., 1499., 1.49287781e+03, 1.49287500e+03, 1.49287500e+03, 1.49287500e+03, 1.49339087e+03, 1499., 1499., 1.50009546e+03, 1.50030835e+03, 1506., 1506., 1506., 1506., 1506., 1506., 1506., 1506., 1.50266406e+03, 1506., 1.50599951e+03, 1506., 1506., 1506., 1506., 1506., 1506., 1506., 1506., 1506., 1506., 1.49927515e+03, 1499., 1499., 1499., 1499.,
       1519., 1519., 1519., 1519., 1519., 1519., 1519., 1.51203137e+03, 1512., 1512., 1512., 1512., 1512., 1512., 1512., 1512., 1512., 1512., 1512., 1.50749988e+03, 1512., 1512., 1512., 1512., 1.50600293e+03, 1.50601550e+03, 1.50901465e+03, 1.51098938e+03, 1509., 1506., 1506., 1506., 1506., 1506., 1506., 1506., 1506., 1506., 1506., 1506., 1.50614062e+03, 1.51139514e+03, 1.51008264e+03, 1.51158398e+03, 1.50928430e+03, 1.51154822e+03, 1512., 1512., 1.51190625e+03, 1.51199854e+03, 1.51189282e+03, 1512., 1512., 1512., 1.51199854e+03, 1.50623438e+03, 1.51195654e+03, 1.51008142e+03, 1.50989062e+03, 1499., 1499., 1.49765710e+03, 1.49809473e+03, 1499., 1499., 1499., 1499., 1499., 1499., 1499., 1499., 1499., 1.50413794e+03, 1506., 1.49992969e+03, 1.50424377e+03, 1499., 1506., 1506., 1.49910938e+03, 1499., 1499., 1499., 1499., 1499., 1.49364990e+03, 1499., 1499., 1499., 1499., 1499., 1.49900049e+03, 1.50161462e+03, 1.49926111e+03, 1.50032080e+03, 1.50032422e+03, 1506., 1.50512500e+03, 1.49922217e+03, 1.49931909e+03, 1.49900366e+03, 1.50389233e+03, 1.49900342e+03, 1499., 1499., 1499., 1.49911353e+03, 1.49911389e+03, 1.49900049e+03, 1499., 1499., 1499., 1499., 1499., 1.49336548e+03, 1492., 1492., 1492., 1492., 1492., 1492., 1.49139062e+03, 1492., 1.49850781e+03, 1499., 1499., 1.50164917e+03, 1499., 1499., 1.50251709e+03, 1.50561719e+03, 1.50594531e+03, 1.50578125e+03, 1.49902429e+03, 1.49902051e+03, 1.49902429e+03, 1.49902515e+03, 1.49902515e+03, 1.50545923e+03, 1506., 1.50555542e+03, 1506., 1.50303992e+03, 1499., 1499., 1499., 1.49574780e+03, 1492., 1.49899573e+03, 1499., 1499., 1499., 1499., 1.50340625e+03, 1.50538965e+03, 1.49901709e+03, 1499., 1492., 1492., 1.49876758e+03, 1492., 1.49351758e+03, 1.49243762e+03, 1.49348999e+03, 1.49723633e+03, 1499., 1499., 1.50386743e+03, 1.50398340e+03, 1.50250000e+03, 1506., 1506., 1506., 1.50299280e+03, 1.50314258e+03, 1499., 1499., 1499., 1499., 1499., 1.49286865e+03, 1499., 1.49204797e+03, 1.49379932e+03, 1.49423682e+03, 1499., 1.49872656e+03, 1.49878125e+03, 1499., 1499., 1499., 1.49899829e+03, 1499., 1499., 1.49889062e+03, 1.49889050e+03, 1.49889050e+03, 1.49883582e+03, 1.49883594e+03, 1499., 1499., 1.49856250e+03, 1499., 1.49681250e+03, 1.49681250e+03, 1.49612866e+03, 1499., 1.49790625e+03, 1.49612891e+03, 1499., 1.49611426e+03, 1.49725000e+03, 1.49725000e+03, 1499., 1499., 1499., 1499., 1499., 1.49900085e+03, 1.49725000e+03, 1499., 1.49688062e+03, 1.49287500e+03, 1.49287500e+03, 1.49287500e+03, 1492., 1.49535962e+03, 1499., 1.49921875e+03, 1.50014941e+03, 1.50249988e+03, 1506., 1506., 1506., 1506., 1.50598401e+03, 1.50596533e+03, 1.50553467e+03, 1499., 1499., 1.50463647e+03, 1.50288672e+03, 1.50595166e+03, 1506., 1506., 1506., 1506., 1506., 1506., 1506., 1506., 1.50595728e+03, 1.49905469e+03, 1499., 1499., 1499., 1.49987500e+03,
       1.51856250e+03, 1.51845142e+03, 1.51845312e+03, 1.51839844e+03, 1.51838892e+03, 1.51888379e+03, 1519., 1512., 1512., 1512., 1512., 1512., 1512., 1512., 1512., 1512., 1512., 1512., 1512., 1512., 1512., 1512., 1512., 1.51101562e+03, 1506., 1506., 1506., 1506., 1506., 1506., 1.50599976e+03, 1506., 1506., 1506., 1506., 1506., 1506., 1506., 1506., 1506., 1506., 1506., 1.50914221e+03, 1.50928430e+03, 1.50928418e+03, 1.51197595e+03, 1512., 1512., 1512., 1512., 1512., 1512., 1512., 1512., 1.51162463e+03, 1506., 1506., 1506., 1506., 1499., 1499., 1499., 1499., 1499., 1.49897900e+03, 1.49730273e+03, 1499., 1.49878125e+03, 1.49988184e+03, 1499., 1499., 1499., 1506., 1506., 1506., 1506., 1499., 1506., 1506., 1.50599744e+03, 1499., 1499., 1499., 1.49899915e+03, 1499., 1.49233716e+03, 1.49233716e+03, 1.49893079e+03, 1.49326721e+03, 1499., 1499., 1499., 1.49900293e+03, 1499., 1.50031250e+03, 1.50031714e+03, 1.50599658e+03, 1.50273584e+03, 1499., 1.50326038e+03, 1.49900708e+03, 1.50323608e+03, 1.49901367e+03, 1499., 1499., 1.49900342e+03, 1.50377649e+03, 1.49989307e+03, 1.49900342e+03, 1499., 1499., 1499., 1.49336462e+03, 1.49358423e+03, 1.49243750e+03, 1492., 1492., 1492., 1492., 1492., 1492., 1.48827600e+03, 1492., 1.49290259e+03, 1499., 1499., 1499., 1.49899829e+03, 1.49894531e+03, 1499., 1.49858313e+03, 1.49863086e+03, 1.50429980e+03, 1.49641699e+03, 1499., 1499., 1.49902051e+03, 1499., 1499., 1.50547192e+03, 1.50020312e+03, 1.50015454e+03, 1.49949304e+03, 1499., 1499., 1499., 1.49574780e+03, 1492., 1.49552734e+03, 1499., 1499., 1499., 1499., 1499., 1499., 1499., 1.49642017e+03, 1492., 1492., 1492., 1492., 1492., 1492., 1.49243762e+03, 1.50226880e+03, 1499., 1.49699023e+03, 1499., 1499., 1499., 1499., 1499., 1499., 1499., 1499., 1499., 1.49725000e+03, 1499., 1499., 1499., 1.49374377e+03, 1.49899915e+03, 1.49202051e+03, 1.49894507e+03, 1.49872656e+03, 1.49894531e+03, 1.49872656e+03, 1.49878125e+03, 1499., 1.50075000e+03, 1.50075000e+03, 1499., 1.50075000e+03, 1499., 1499., 1499., 1.49889050e+03, 1.49839832e+03, 1.49839832e+03, 1.49894531e+03, 1.49661328e+03, 1492., 1.49202600e+03, 1492., 1492., 1492., 1492., 1492., 1492., 1492., 1492., 1.49200684e+03, 1.49211621e+03, 1.49715088e+03, 1499., 1.49725000e+03, 1499., 1.49725000e+03, 1.49725000e+03, 1.49655200e+03, 1.49200256e+03, 1.49200085e+03, 1492., 1492., 1492., 1492., 1492., 1.49205469e+03, 1.49899988e+03, 1.49899988e+03, 1499., 1.50009375e+03, 1.50009375e+03, 1.50417810e+03, 1499., 1499., 1499., 1499., 1499., 1499., 1499., 1499., 1499., 1.50158911e+03, 1.50512500e+03, 1.49971191e+03, 1506., 1506., 1.50158740e+03, 1499., 1506., 1499., 1499., 1499., 1499., 1499., 1.49987500e+03,
       1.51845312e+03, 1.51495300e+03, 1.51845312e+03, 1.51839844e+03, 1.51838989e+03, 1.51888379e+03, 1.51889062e+03, 1.51200342e+03, 1512., 1512., 1512., 1512., 1512., 1512., 1.51049402e+03, 1512., 1512., 1512., 1512., 1.50975000e+03, 1512., 1512., 1512., 1512., 1.50601184e+03, 1506., 1506., 1506., 1.50572656e+03, 1.50468799e+03, 1499., 1.50599976e+03, 1.50468384e+03, 1506., 1506., 1506., 1506., 1506., 1506., 1506., 1506., 1506., 1506., 1506., 1.50628125e+03, 1.50928430e+03, 1.51079016e+03, 1.51124866e+03, 1.51124902e+03, 1512., 1512., 1512., 1512., 1512., 1.50748547e+03, 1506., 1506., 1506., 1506., 1.49899951e+03, 1.49462366e+03, 1.49206152e+03, 1.49403040e+03, 1.49227356e+03, 1492., 1.49199963e+03, 1.49725000e+03, 1.49331494e+03, 1.49893848e+03, 1.49897266e+03, 1.49361328e+03, 1499., 1.49972559e+03, 1506., 1.49953687e+03, 1.50075000e+03, 1499., 1.50072290e+03, 1.50049744e+03, 1499., 1499., 1.49254688e+03, 1.49282764e+03, 1492., 1.49232812e+03, 1492., 1492., 1.49210938e+03, 1492., 1.49500439e+03, 1.49484607e+03, 1499., 1499., 1499., 1499., 1.50075000e+03, 1.50161475e+03, 1.49900171e+03, 1.49922034e+03, 1.49987317e+03, 1.50337329e+03, 1506., 1.50577856e+03, 1.50577942e+03, 1.49900342e+03, 1.50268225e+03, 1.50599829e+03, 1.50355762e+03, 1499., 1499., 1499., 1.49899829e+03, 1.49336108e+03, 1.49331982e+03, 1492., 1.49190625e+03, 1492., 1492., 1492., 1492., 1492., 1.49166602e+03, 1492., 1.49465234e+03, 1.49893164e+03, 1.49892993e+03, 1492., 1.49243750e+03, 1492., 1.49861499e+03, 1.49593750e+03, 1492., 1.49201367e+03, 1492., 1.49859424e+03, 1.49896594e+03, 1.49885657e+03, 1.49642212e+03, 1499., 1499., 1499., 1499., 1499., 1.49664368e+03, 1.49664368e+03, 1.49619922e+03, 1492., 1492., 1.49550000e+03, 1499., 1499., 1499., 1499., 1499., 1499., 1499., 1.49348169e+03, 1492., 1492., 1492., 1492., 1492., 1492., 1.49249231e+03, 1.49987622e+03, 1.49347681e+03, 1492., 1.49697705e+03, 1499., 1.49604688e+03, 1499., 1499., 1499., 1.49723633e+03, 1499., 1499., 1499., 1499., 1499., 1499., 1.49893921e+03, 1499., 1.49532996e+03, 1.49883252e+03, 1.49883594e+03, 1.49889062e+03, 1499., 1.49861633e+03, 1.49902734e+03, 1.50077734e+03, 1.50077734e+03, 1499., 1.50075000e+03, 1499., 1499., 1499., 1499., 1.49894531e+03, 1.49894531e+03, 1499., 1499., 1.49812500e+03, 1.49637500e+03, 1492., 1492., 1492., 1492., 1492., 1492., 1492., 1492., 1492., 1.49200684e+03, 1.49211621e+03, 1.49724744e+03, 1.49304590e+03, 1.49694312e+03, 1.49561621e+03, 1.49556238e+03, 1492., 1492., 1492., 1492., 1492., 1492., 1492., 1492., 1.49316516e+03, 1499., 1.49899988e+03, 1499., 1499., 1499., 1.49921875e+03, 1499., 1499., 1499., 1499., 1.49855859e+03, 1.49768530e+03, 1499., 1499., 1.49414819e+03, 1499., 1499., 1499., 1499., 1.50119080e+03, 1499., 1499., 1506., 1499., 1499., 1499., 1499., 1499., 1.50595728e+03,
       1512., 1512., 1512., 1512., 1512., 1.51287842e+03, 1.51287842e+03, 1512., 1512., 1512., 1512., 1512., 1512., 1512., 1.50640247e+03, 1.51199414e+03, 1512., 1512., 1512., 1.51125000e+03, 1512., 1512., 1512., 1512., 1.50601184e+03, 1506., 1.50594531e+03, 1.50583594e+03, 1.50496094e+03, 1499., 1499., 1.50589038e+03, 1.50479614e+03, 1506., 1506., 1506., 1506., 1506., 1.50599915e+03, 1506., 1506., 1506., 1.50599951e+03, 1506., 1.50825439e+03, 1.50694678e+03, 1.51083850e+03, 1.51115784e+03, 1512., 1512., 1512., 1512., 1512., 1.50729944e+03, 1506., 1506., 1506., 1506., 1506., 1.49767224e+03, 1.49227344e+03, 1.49221875e+03, 1492., 1492., 1492., 1.48783716e+03, 1.49197620e+03, 1492., 1492., 1492., 1.49200012e+03, 1.49547266e+03, 1499., 1.50071350e+03, 1.49949561e+03, 1.49905811e+03, 1499., 1499., 1499., 1499., 1492., 1492., 1492., 1.49199927e+03, 1492., 1.49199927e+03, 1.49197290e+03, 1492., 1492., 1.49232983e+03, 1.49221924e+03, 1.49499731e+03, 1499., 1499., 1499., 1.50512842e+03, 1.50580005e+03, 1.50075049e+03, 1.50556067e+03, 1.49982031e+03, 1506., 1506., 1506., 1506., 1.49912744e+03, 1.50599829e+03, 1.50599829e+03, 1.50596411e+03, 1499., 1.49899829e+03, 1499., 1.49719360e+03, 1.49894360e+03, 1.49332007e+03, 1492., 1492., 1492., 1492., 1492., 1.49194727e+03, 1492., 1486., 1492., 1492., 1.49859485e+03, 1492., 1.49199854e+03, 1.49199854e+03, 1.49199854e+03, 1.49375000e+03, 1.49199854e+03, 1.49088672e+03, 1486., 1489., 1492., 1.49835669e+03, 1.49201123e+03, 1492., 1.49672974e+03, 1499., 1499., 1499., 1.49725000e+03, 1492., 1492., 1.49200171e+03, 1.49202734e+03, 1492., 1492., 1.49728418e+03, 1499., 1.49875391e+03, 1499., 1499., 1499., 1499., 1.49200452e+03, 1492., 1492., 1492., 1492., 1.49637500e+03, 1.49637476e+03, 1499., 1.50598633e+03, 1.49722217e+03, 1492., 1.49698633e+03, 1499., 1492., 1499., 1.49699023e+03, 1499., 1.49611182e+03, 1499., 1499., 1499., 1499., 1499., 1499., 1499., 1499., 1.49882971e+03, 1.49507666e+03, 1.49511084e+03, 1.49510571e+03, 1.49861206e+03, 1.49859326e+03, 1499., 1499., 1.50075342e+03, 1499., 1499., 1499., 1499., 1499., 1499., 1499., 1499., 1499., 1499., 1499., 1499., 1.49200085e+03, 1492., 1492., 1492., 1492., 1492., 1492., 1492., 1.49200684e+03, 1.49211670e+03, 1.49649121e+03, 1.49649170e+03, 1492., 1492., 1492., 1492., 1492., 1492., 1492., 1492., 1492., 1492., 1492., 1.49207129e+03, 1.49375000e+03, 1499., 1499., 1499., 1499., 1499., 1.49921875e+03, 1499., 1499., 1499., 1499., 1.49855859e+03, 1.49764673e+03, 1.49856250e+03, 1.49490479e+03, 1492., 1499., 1499., 1.49446240e+03, 1499., 1499., 1499., 1499., 1.49983374e+03, 1499., 1499., 1499., 1499., 1499., 1.50599963e+03,
       1512., 1512., 1512., 1512., 1512., 1512., 1512., 1512., 1512., 1512., 1512., 1512., 1512., 1512., 1.50600037e+03, 1506., 1512., 1512., 1512., 1.50975000e+03, 1.51125000e+03, 1512., 1512., 1512., 1.50601404e+03, 1506., 1.50451245e+03, 1.50495728e+03, 1.50451978e+03, 1499., 1499., 1.50425171e+03, 1.50425171e+03, 1.50588940e+03, 1506., 1506., 1506., 1506., 1.50599951e+03, 1.50599951e+03, 1506., 1.50599951e+03, 1.50599866e+03, 1.50508350e+03, 1506., 1.50618750e+03, 1.51116089e+03, 1.51123755e+03, 1512., 1512., 1512., 1512., 1512., 1.51043860e+03, 1.50675000e+03, 1506., 1506., 1506., 1.50556250e+03, 1.49839868e+03, 1.49402515e+03, 1.49768701e+03, 1.49205469e+03, 1492., 1492., 1.49160120e+03, 1492., 1492., 1492., 1492., 1492., 1.49721582e+03, 1499., 1499., 1.49905469e+03, 1.49927686e+03, 1499., 1499., 1499., 1499., 1.49210938e+03, 1.49210938e+03, 1492., 1492., 1492., 1492., 1492., 1492., 1492., 1492., 1492., 1492., 1.49200085e+03, 1.49222009e+03, 1.49222021e+03, 1.50083252e+03, 1.50599902e+03, 1.50543677e+03, 1506., 1.50075049e+03, 1506., 1506., 1.50134302e+03, 1.50177808e+03, 1499., 1.50549902e+03, 1.49900342e+03, 1.50255469e+03, 1499., 1.49673547e+03, 1.49894360e+03, 1.49368677e+03, 1.49331616e+03, 1.49331274e+03, 1492., 1.49185352e+03, 1492., 1492., 1492., 1.49195312e+03, 1492., 1486., 1.49174792e+03, 1492., 1492., 1.49199854e+03, 1.48937500e+03, 1.49091406e+03, 1.48937500e+03, 1492., 1.49166956e+03, 1486., 1486., 1486., 1492., 1492., 1492., 1492., 1492., 1499., 1499., 1499., 1492., 1492., 1492., 1492., 1492., 1492., 1492., 1.49377905e+03, 1.49877441e+03, 1.49200427e+03, 1.49525391e+03, 1.49480103e+03, 1.49200452e+03, 1.49332446e+03, 1.48897656e+03, 1.48600317e+03, 1.48600586e+03, 1489., 1.48899805e+03, 1492., 1492., 1.49249316e+03, 1.49249316e+03, 1492., 1492., 1492., 1.49692188e+03, 1492., 1.49287500e+03, 1492., 1.49604688e+03, 1492., 1.49701416e+03, 1.49594641e+03, 1.49715088e+03, 1499., 1.49331299e+03, 1499., 1.49533081e+03, 1499., 1.49287500e+03, 1492., 1.49243750e+03, 1492., 1492., 1.49171802e+03, 1.49421826e+03, 1.49777466e+03, 1.49876074e+03, 1.49876758e+03, 1499., 1499., 1.49899988e+03, 1499., 1499., 1499., 1499., 1499., 1499., 1499., 1499., 1492., 1492., 1.49050000e+03, 1492., 1492., 1492., 1492., 1492., 1.49200684e+03, 1.49699878e+03, 1.49561621e+03, 1492., 1492., 1.49050000e+03, 1.49050000e+03, 1.49050000e+03, 1486., 1492., 1492., 1492., 1492., 1492., 1492., 1492., 1.49363379e+03, 1499., 1499., 1499., 1499., 1499., 1499., 1499., 1499., 1.49891431e+03, 1.49899951e+03, 1.49200024e+03, 1492., 1.49200024e+03, 1492., 1492., 1499., 1499., 1492., 1499., 1499., 1499., 1499., 1.50337500e+03, 1499., 1499., 1499., 1499., 1499., 1.49987500e+03,
       1512., 1512., 1512., 1.51199414e+03, 1.51199268e+03, 1.51199268e+03, 1512., 1512., 1.51199268e+03, 1512., 1512., 1512., 1512., 1.51028308e+03, 1506., 1506., 1506., 1.50665637e+03, 1.50972644e+03, 1506., 1.50634241e+03, 1.51087500e+03, 1512., 1512., 1.50601428e+03, 1506., 1.50496094e+03, 1.50583228e+03, 1.50495728e+03, 1.50250171e+03, 1.50075000e+03, 1.50583569e+03, 1.50583569e+03, 1506., 1.50750000e+03, 1.51129248e+03, 1.51126904e+03, 1506., 1506., 1506., 1506., 1506., 1506., 1506., 1506., 1.51115967e+03, 1512., 1512., 1512., 1512., 1512., 1512., 1.51194043e+03, 1506., 1506., 1506., 1499., 1499., 1499., 1492., 1492., 1.49402344e+03, 1492., 1492., 1492., 1.48858130e+03, 1.49158215e+03, 1.48675037e+03, 1.49187695e+03, 1.49197070e+03, 1492., 1492., 1.49710620e+03, 1499., 1499., 1499., 1499., 1.49898523e+03, 1.49465625e+03, 1492., 1492., 1492., 1492., 1.48898743e+03, 1492., 1492., 1492., 1492., 1492., 1492., 1492., 1.49487451e+03, 1.49450879e+03, 1.49462500e+03, 1.49550000e+03, 1.49550000e+03, 1.50075000e+03, 1.50075000e+03, 1.50434277e+03, 1.49978088e+03, 1506., 1506., 1.49915210e+03, 1.50248938e+03, 1.49911035e+03, 1.50024902e+03, 1.49911279e+03, 1499., 1.49899829e+03, 1492., 1.49703625e+03, 1492., 1492., 1492., 1.48712573e+03, 1.49012524e+03, 1.48975024e+03, 1.49166602e+03, 1.49185352e+03, 1.49166602e+03, 1.49175977e+03, 1486., 1.49050024e+03, 1.49165308e+03, 1.49165417e+03, 1.49090161e+03, 1486., 1.49089844e+03, 1.48937500e+03, 1.49195166e+03, 1.49088684e+03, 1486., 1486., 1486., 1492., 1492., 1492., 1492., 1492., 1.49244507e+03, 1.49716626e+03, 1.49705688e+03, 1492., 1492., 1492., 1492., 1492., 1.49195312e+03, 1492., 1492., 1492., 1492., 1492., 1492., 1492., 1492., 1.48802588e+03, 1486., 1486., 1486., 1486., 1.48600024e+03, 1492., 1492., 1492., 1492., 1492., 1492., 1492., 1492., 1492., 1492., 1492., 1492., 1.49593958e+03, 1.49243750e+03, 1.49723291e+03, 1499., 1.49720557e+03, 1499., 1499., 1499., 1.49331299e+03, 1.49331299e+03, 1492., 1492., 1492., 1.49199927e+03, 1.49378076e+03, 1.49876013e+03, 1.49876758e+03, 1.49878125e+03, 1499., 1499., 1.49899988e+03, 1499., 1499., 1499., 1499., 1499., 1.49839148e+03, 1499., 1.49201489e+03, 1492., 1492., 1492., 1492., 1492., 1492., 1492., 1492., 1.49200684e+03, 1.49719458e+03, 1492., 1492., 1492., 1.48986719e+03, 1.49043005e+03, 1.49005518e+03, 1486., 1.49183655e+03, 1492., 1492., 1492., 1492., 1492., 1492., 1.49265625e+03, 1499., 1499., 1499., 1499., 1499., 1499., 1499., 1.49894531e+03, 1.49506482e+03, 1.49375024e+03, 1492., 1492., 1492., 1492., 1492., 1.49808887e+03, 1.49809082e+03, 1492., 1.49812500e+03, 1499., 1499., 1499., 1.50337476e+03, 1499., 1499., 1499., 1499., 1499., 1499.,
       1.51011719e+03, 1506., 1506., 1506., 1506., 1506., 1506., 1506., 1506., 1506., 1506., 1.50746899e+03, 1.50749402e+03, 1506., 1506., 1506., 1506., 1506., 1506., 1506., 1.50632812e+03, 1.50623096e+03, 1512., 1.50920752e+03, 1.50600220e+03, 1506., 1.50501221e+03, 1.50495728e+03, 1.50495728e+03, 1.49900171e+03, 1.50075000e+03, 1.50583569e+03, 1.50589038e+03, 1.50750000e+03, 1.50750586e+03, 1.51127319e+03, 1.51131592e+03, 1.51150647e+03, 1506., 1506., 1506., 1506., 1506., 1506., 1506., 1.50618750e+03, 1.51125000e+03, 1.50780518e+03, 1.51120239e+03, 1512., 1.51120312e+03, 1506., 1506., 1506., 1506., 1506., 1499., 1499., 1499., 1492., 1492., 1492., 1492., 1492., 1492., 1.48783289e+03, 1.49004553e+03, 1.48600012e+03, 1.48699988e+03, 1.49037659e+03, 1492., 1492., 1.49221875e+03, 1.49659717e+03, 1499., 1499., 1499., 1499., 1.49247217e+03, 1492., 1492., 1492., 1492., 1492., 1492., 1492., 1492., 1492., 1492., 1492., 1492., 1492., 1492., 1.49268701e+03, 1.49265955e+03, 1.49550000e+03, 1499., 1.49550000e+03, 1499., 1499., 1.50512500e+03, 1.50292847e+03, 1.50281909e+03, 1.50277441e+03, 1499., 1499., 1499., 1.49849902e+03, 1492., 1492., 1492., 1492., 1.48694116e+03, 1492., 1486., 1486., 1.48975171e+03, 1.49199414e+03, 1.49185352e+03, 1.49166602e+03, 1.49166602e+03, 1486., 1486., 1486., 1486., 1486., 1486., 1489., 1489., 1.49190625e+03, 1.49110779e+03, 1486., 1486., 1486., 1.49195312e+03, 1492., 1492., 1.48990015e+03, 1492., 1492., 1492., 1492., 1492., 1.49199707e+03, 1.49196777e+03, 1492., 1.49196777e+03, 1.49199414e+03, 1492., 1492., 1492., 1492., 1492., 1492., 1492., 1.49197656e+03, 1.48604980e+03, 1486., 1486., 1486., 1486., 1486., 1492., 1492., 1.49200024e+03, 1.49331360e+03, 1492., 1492., 1492., 1492., 1492., 1492., 1492., 1492., 1492., 1.49243750e+03, 1499., 1499., 1.49888721e+03, 1499., 1499., 1499., 1.49507617e+03, 1.49331299e+03, 1492., 1.49190625e+03, 1492., 1.48790137e+03, 1492., 1492., 1.49205811e+03, 1.49205811e+03, 1.49789160e+03, 1.49731055e+03, 1.49774805e+03, 1499., 1.49899988e+03, 1499., 1499., 1499., 1.49856238e+03, 1499., 1.49201477e+03, 1492., 1492., 1492., 1492., 1492., 1.49334521e+03, 1492., 1492., 1.49210938e+03, 1.49719531e+03, 1.49210938e+03, 1492., 1492., 1.48684375e+03, 1.48742969e+03, 1486., 1486., 1.49198596e+03, 1.49090173e+03, 1.49199927e+03, 1.48639893e+03, 1.49199927e+03, 1.49189368e+03, 1492., 1492., 1.49265625e+03, 1499., 1.49894519e+03, 1499., 1499., 1499., 1499., 1492., 1492., 1492., 1492., 1492., 1492., 1492., 1492., 1.49899829e+03, 1.49812500e+03, 1492., 1.49809766e+03, 1499., 1499., 1499., 1499., 1499., 1499., 1499., 1499., 1499., 1499.,
       1506., 1506., 1.50370264e+03, 1.50009375e+03, 1.50599146e+03, 1506., 1506., 1506., 1506., 1.50675000e+03, 1.50675037e+03, 1.51199414e+03, 1512., 1.50639001e+03, 1506., 1506., 1506., 1506., 1506., 1506., 1506., 1506., 1.50622510e+03, 1506., 1506., 1506., 1.50451257e+03, 1.50273413e+03, 1.50451245e+03, 1.50451575e+03, 1.50539478e+03, 1506., 1.50750000e+03, 1.51126904e+03, 1.51126904e+03, 1512., 1.51187915e+03, 1.51131592e+03, 1506., 1506., 1506., 1506., 1.50599658e+03, 1506., 1506., 1506., 1506., 1506., 1506., 1.51120227e+03, 1.51120312e+03, 1506., 1506., 1.50420728e+03, 1.49987512e+03, 1.50371484e+03, 1499., 1499., 1499., 1492., 1492., 1492., 1492., 1492., 1492., 1.49159534e+03, 1486., 1.48681018e+03, 1.48605872e+03, 1.48737646e+03, 1492., 1492., 1492., 1492., 1.49888269e+03, 1499., 1499., 1.49361548e+03, 1492., 1492., 1492., 1492., 1492., 1.49124988e+03, 1492., 1492., 1492., 1492., 1492., 1492., 1492., 1.49685278e+03, 1.49243750e+03, 1.49510645e+03, 1.49268652e+03, 1499., 1.49802930e+03, 1.49276880e+03, 1.49453271e+03, 1499., 1.50589062e+03, 1506., 1.50260083e+03, 1.50353577e+03, 1.49546924e+03, 1.49550000e+03, 1499., 1492., 1492., 1.49005322e+03, 1492., 1.49045312e+03, 1.49031616e+03, 1492., 1486., 1.48600024e+03, 1.49163086e+03, 1492., 1492., 1492., 1492., 1486., 1486., 1.49050000e+03, 1486., 1486., 1486., 1489., 1489., 1.49185938e+03, 1.49110791e+03, 1486., 1.49091150e+03, 1.48901208e+03, 1.49195312e+03, 1492., 1492., 1.48610254e+03, 1.48647791e+03, 1492., 1492., 1492., 1.49197656e+03, 1.48670337e+03, 1.48971509e+03, 1.49122070e+03, 1.48672070e+03, 1492., 1492., 1492., 1492., 1492., 1.48895752e+03, 1.49197656e+03, 1.48605090e+03, 1.48604761e+03, 1486., 1486., 1486., 1486., 1486., 1486., 1492., 1.49291650e+03, 1.49357373e+03, 1.49723779e+03, 1492., 1492., 1.49607422e+03, 1492., 1492., 1.49122803e+03, 1.49123401e+03, 1.49122815e+03, 1492., 1492., 1.49799097e+03, 1499., 1.49420215e+03, 1499., 1.49889062e+03, 1.49888550e+03, 1.49332617e+03, 1.49506250e+03, 1.49190625e+03, 1.48884814e+03, 1492., 1486., 1.49198828e+03, 1492., 1492., 1492., 1.49200342e+03, 1.49200403e+03, 1.49785742e+03, 1499., 1499., 1499., 1499., 1499., 1.49761914e+03, 1.49202820e+03, 1492., 1492., 1.49166003e+03, 1492., 1492., 1492., 1.49200342e+03, 1492., 1492., 1492., 1.49894360e+03, 1492., 1492., 1492., 1.48667969e+03, 1.49199243e+03, 1492., 1.49199341e+03, 1492., 1.49199414e+03, 1492., 1.48637549e+03, 1.49114954e+03, 1.48815540e+03, 1.49049988e+03, 1492., 1492., 1.49358154e+03, 1.49309375e+03, 1499., 1.49894531e+03, 1499., 1499., 1492., 1.49221899e+03, 1492., 1492., 1492., 1492., 1492., 1492., 1.49205469e+03, 1492., 1492., 1.49205469e+03, 1.49590991e+03, 1.49590991e+03, 1.49766016e+03, 1499., 1.49589258e+03, 1499., 1499., 1.50075000e+03, 1.49898413e+03, 1499.,
       1506., 1506., 1.50012830e+03, 1499., 1.49921875e+03, 1.50009473e+03, 1.50545142e+03, 1.50010889e+03, 1.50016370e+03, 1506., 1506., 1506., 1.50731580e+03, 1506., 1506., 1506., 1506., 1506., 1.50604688e+03, 1506., 1506., 1506., 1.50636584e+03, 1.50922522e+03, 1.50600085e+03, 1506., 1.50500537e+03, 1.50495728e+03, 1.50646313e+03, 1.50602319e+03, 1.50545288e+03, 1.50589038e+03, 1.50825000e+03, 1.51187891e+03, 1.51164514e+03, 1512., 1.50864478e+03, 1.50825586e+03, 1506., 1506., 1506., 1506., 1506., 1.50206165e+03, 1506., 1506., 1506., 1.50512500e+03, 1506., 1506., 1506., 1506., 1.50250317e+03, 1499., 1499., 1499., 1499., 1499., 1.49852148e+03, 1.49158374e+03, 1492., 1492., 1492., 1.49086914e+03, 1492., 1486., 1486., 1486., 1486., 1486., 1.49049390e+03, 1492., 1492., 1492., 1.49227344e+03, 1.49363086e+03, 1.49899915e+03, 1.49202783e+03, 1492., 1492., 1492., 1492., 1492., 1.48820349e+03, 1492., 1492., 1492., 1492., 1492., 1492., 1492., 1.49684937e+03, 1492., 1499., 1499., 1499., 1.49898633e+03, 1499., 1.49457715e+03, 1499., 1.50259998e+03, 1499., 1.49429858e+03, 1492., 1492., 1492., 1492., 1492., 1.49192896e+03, 1486., 1.49173999e+03, 1.48675366e+03, 1486., 1.48675049e+03, 1486., 1486., 1.49186377e+03, 1492., 1.48637512e+03, 1.48787805e+03, 1.49198755e+03, 1486., 1486., 1486., 1486., 1486., 1486., 1.48600586e+03, 1486., 1.49110718e+03, 1.48601172e+03, 1486., 1486., 1.48604688e+03, 1.48605566e+03, 1486., 1.49162427e+03, 1.48600879e+03, 1486., 1.48600024e+03, 1486., 1486., 1486., 1486., 1486., 1486., 1486., 1.48657800e+03, 1.49197656e+03, 1492., 1492., 1.48897656e+03, 1.48614441e+03, 1.48897656e+03, 1489., 1.48605676e+03, 1486., 1486., 1486., 1486., 1486., 1.48735718e+03, 1492., 1.49357385e+03, 1.49374475e+03, 1499., 1.49899658e+03, 1492., 1.49717566e+03, 1492., 1492., 1486., 1486., 1486., 1492., 1492., 1.49200171e+03, 1.49594006e+03, 1492., 1499., 1.49359277e+03, 1.49243750e+03, 1.49331250e+03, 1.49243750e+03, 1.49185913e+03, 1.49033606e+03, 1.49190625e+03, 1.48602637e+03, 1.49170044e+03, 1.49052844e+03, 1.48752698e+03, 1.48605042e+03, 1.49199414e+03, 1492., 1492., 1499., 1.49549146e+03, 1.49549829e+03, 1492., 1.49375000e+03, 1492., 1492., 1492., 1.48675293e+03, 1486., 1.48675330e+03, 1.48879492e+03, 1492., 1.49200342e+03, 1492., 1492., 1492., 1.49894519e+03, 1492., 1.49254688e+03, 1492., 1.49193079e+03, 1.49199390e+03, 1.49199414e+03, 1.49199414e+03, 1.49199414e+03, 1.49199414e+03, 1.48946204e+03, 1486., 1.48637549e+03, 1.48637842e+03, 1.48637830e+03, 1492., 1492., 1.49287500e+03, 1492., 1.49894482e+03, 1.49661621e+03, 1.49894531e+03, 1.49894531e+03, 1492., 1.49200024e+03, 1.49221875e+03, 1.49200024e+03, 1492., 1.49221875e+03, 1492., 1492., 1.49217773e+03, 1492., 1492., 1.49243848e+03, 1.49897266e+03, 1.49853516e+03, 1.49897266e+03, 1499., 1.49725000e+03, 1499., 1499., 1.49595679e+03, 1.49327380e+03, 1499.,
       1506., 1.50425000e+03, 1.49900684e+03, 1499., 1499., 1.49922656e+03, 1.50366016e+03, 1.49922571e+03, 1499., 1.50010889e+03, 1.50599316e+03, 1506., 1506., 1506., 1499., 1.49938623e+03, 1.50599316e+03, 1506., 1506., 1506., 1506., 1506., 1.51009534e+03, 1512., 1.50923828e+03, 1506., 1506., 1506., 1.50609668e+03, 1.51120117e+03, 1.50609668e+03, 1.50589038e+03, 1506., 1.51150342e+03, 1.50825586e+03, 1.51169165e+03, 1.50675000e+03, 1.50600586e+03, 1506., 1506., 1.50599658e+03, 1.50245508e+03, 1.50160632e+03, 1.49900696e+03, 1.50097559e+03, 1506., 1506., 1.49854883e+03, 1.50157019e+03, 1506., 1506., 1.50261084e+03, 1499., 1499., 1499., 1499., 1492., 1492., 1492., 1486., 1.48782837e+03, 1492., 1.49161914e+03, 1.48632812e+03, 1.49162500e+03, 1486., 1486., 1486., 1486., 1486., 1486., 1492., 1492., 1492., 1492., 1492., 1.49200342e+03, 1492., 1492., 1.48717078e+03, 1486., 1489., 1492., 1486., 1.49194116e+03, 1492., 1492., 1492., 1492., 1492., 1492., 1.49685266e+03, 1.49200085e+03, 1499., 1.49438574e+03, 1499., 1.49812500e+03, 1499., 1.49429907e+03, 1.49429993e+03, 1.49806689e+03, 1492., 1492., 1.49199707e+03, 1.49199707e+03, 1492., 1492., 1.48892603e+03, 1486., 1486., 1486., 1486., 1486., 1486., 1486., 1486., 1486., 1.48825000e+03, 1486., 1486., 1486., 1486., 1486., 1486., 1486., 1486., 1486., 1486., 1486., 1486., 1.48601172e+03, 1486., 1486., 1486., 1.48643762e+03, 1486., 1486., 1486., 1486., 1486., 1486., 1486., 1486., 1486., 1486., 1486., 1486., 1486., 1.48972607e+03, 1.49125000e+03, 1.49122656e+03, 1.48610376e+03, 1486., 1.48615063e+03, 1.48765088e+03, 1.48604761e+03, 1486., 1486., 1486., 1486., 1486., 1.48678540e+03, 1492., 1492., 1492., 1.49374817e+03, 1.49373267e+03, 1.49287500e+03, 1.49345007e+03, 1492., 1492., 1.49122803e+03, 1.49122803e+03, 1486., 1.49198804e+03, 1.49198828e+03, 1492., 1492., 1492., 1.49243750e+03, 1492., 1.49243750e+03, 1.49508386e+03, 1.49243750e+03, 1.49190625e+03, 1.49185864e+03, 1492., 1.48602344e+03, 1.49052795e+03, 1486., 1486., 1486., 1.49133569e+03, 1.49199414e+03, 1.49200415e+03, 1499., 1499., 1499., 1.49538977e+03, 1499., 1492., 1492., 1.48691943e+03, 1.48675293e+03, 1486., 1.48680249e+03, 1.48841992e+03, 1492., 1492., 1492., 1492., 1492., 1492., 1.49195239e+03, 1492., 1.48893396e+03, 1486., 1486., 1486., 1.48609375e+03, 1.48796912e+03, 1.49199414e+03, 1.49124414e+03, 1.48637549e+03, 1492., 1492., 1492., 1.49243774e+03, 1492., 1.49369482e+03, 1.49310742e+03, 1499., 1.49894482e+03, 1499., 1499., 1492., 1.49221899e+03, 1.49890942e+03, 1.49396899e+03, 1492., 1.49234229e+03, 1492., 1492., 1.49566797e+03, 1492., 1492., 1.49566931e+03, 1.49567737e+03, 1.49567615e+03, 1.49678516e+03, 1.49678491e+03, 1.49680103e+03, 1.50145068e+03, 1.49853467e+03, 1492., 1492., 1.49495337e+03,
       1506., 1.50250342e+03, 1499., 1.49668945e+03, 1.49889062e+03, 1499., 1499., 1499., 1499., 1499., 1.50071240e+03, 1506., 1506., 1506., 1499., 1499., 1.50597266e+03, 1506., 1506., 1506., 1.50596582e+03, 1506., 1506., 1506., 1506., 1506., 1506., 1.50425000e+03, 1.50425000e+03, 1.50414038e+03, 1506., 1.50587671e+03, 1506., 1.50675000e+03, 1506., 1.50675000e+03, 1506., 1506., 1.50599658e+03, 1506., 1.50599988e+03, 1.49939270e+03, 1.50445178e+03, 1.49900684e+03, 1499., 1.49933496e+03, 1.50468750e+03, 1499., 1499., 1499., 1499., 1499., 1499., 1.49634766e+03, 1.49897266e+03, 1499., 1492., 1.49222021e+03, 1492., 1.48861914e+03, 1.49162500e+03, 1492., 1492., 1.49087195e+03, 1492., 1.48609375e+03, 1486., 1486., 1486., 1486., 1486., 1.49035181e+03, 1492., 1492., 1492., 1492., 1492., 1492., 1492., 1.48714880e+03, 1486., 1.48898462e+03, 1492., 1.48633032e+03, 1.49198828e+03, 1492., 1492., 1492., 1492., 1492., 1492., 1492., 1492., 1.49203003e+03, 1492., 1.49200171e+03, 1492., 1492., 1492., 1492., 1492., 1.48797021e+03, 1.48759521e+03, 1486., 1486., 1.48611133e+03, 1.48609961e+03, 1486., 1486., 1486., 1486., 1.48675000e+03, 1486., 1486., 1486., 1486., 1486., 1486., 1486., 1486., 1486., 1486., 1486., 1486., 1486., 1486., 1486., 1486., 1486., 1486., 1486., 1486., 1486., 1486., 1486., 1.48604688e+03, 1486., 1486., 1486., 1486., 1486., 1486., 1486., 1486., 1486., 1486., 1486., 1486., 1486., 1486., 1486., 1486., 1486., 1486., 1486., 1486., 1486., 1486., 1486., 1486., 1486., 1486., 1.48717029e+03, 1.49199854e+03, 1492., 1492., 1492., 1492., 1492., 1492., 1492., 1.49198218e+03, 1.49198828e+03, 1.49111084e+03, 1492., 1492., 1492., 1.49506519e+03, 1492., 1.49862671e+03, 1.49337659e+03, 1.49200085e+03, 1.49244519e+03, 1.49244519e+03, 1492., 1.49147168e+03, 1492., 1.48900293e+03, 1.48975476e+03, 1486., 1486., 1486., 1.49002319e+03, 1492., 1492., 1.49286646e+03, 1.49812329e+03, 1499., 1.49276392e+03, 1.49268713e+03, 1492., 1.49198828e+03, 1486., 1486., 1486., 1.48600293e+03, 1.48600293e+03, 1.48600330e+03, 1.49181250e+03, 1.49176562e+03, 1.49176562e+03, 1.48874561e+03, 1492., 1.49195239e+03, 1.49375000e+03, 1492., 1.48609375e+03, 1486., 1486., 1.48609375e+03, 1486., 1486., 1486., 1486., 1.48954321e+03, 1.48954480e+03, 1.48954468e+03, 1492., 1492., 1492., 1492., 1.49310779e+03, 1492., 1.49201367e+03, 1.49543713e+03, 1492., 1.49894531e+03, 1.49893677e+03, 1.49396899e+03, 1492., 1.49234229e+03, 1492., 1.49205469e+03, 1.49205859e+03, 1492., 1.49205640e+03, 1.49853516e+03, 1.49681250e+03, 1.49677148e+03, 1499., 1.49897437e+03, 1.50076672e+03, 1.50156006e+03, 1.49943811e+03, 1.49303955e+03, 1.49588513e+03, 1.49545239e+03,
       1506., 1506., 1499., 1.49707227e+03, 1499., 1499., 1499., 1499., 1499., 1499., 1.49921924e+03, 1.50599316e+03, 1.50060547e+03, 1.49905518e+03, 1499., 1499., 1499., 1.49907178e+03, 1499., 1.49905469e+03, 1.49905469e+03, 1.49905469e+03, 1506., 1506., 1506., 1506., 1.50599951e+03, 1506., 1.50425000e+03, 1.49922144e+03, 1.50554175e+03, 1499., 1.50598608e+03, 1.50587671e+03, 1.50248267e+03, 1506., 1506., 1.50598633e+03, 1.50595447e+03, 1506., 1506., 1506., 1506., 1499., 1499., 1499., 1499., 1.49593726e+03, 1.49586194e+03, 1499., 1.49812488e+03, 1.49635254e+03, 1.49629785e+03, 1.49897266e+03, 1.49722266e+03, 1499., 1492., 1492., 1492., 1.48858264e+03, 1.48858984e+03, 1.49162500e+03, 1.49162500e+03, 1.48862463e+03, 1489., 1486., 1.48600073e+03, 1486., 1486., 1486., 1486., 1486., 1486., 1486., 1486., 1.49049829e+03, 1492., 1492., 1492., 1.48641016e+03, 1.48899854e+03, 1492., 1492., 1492., 1.49200708e+03, 1492., 1.49200085e+03, 1492., 1492., 1492., 1492., 1.49200085e+03, 1492., 1492., 1492., 1492., 1492., 1492., 1.48801855e+03, 1.48759521e+03, 1.48759534e+03, 1486., 1486., 1486., 1486., 1486., 1486., 1486., 1486., 1486., 1486., 1486., 1486., 1486., 1486., 1486., 1486., 1486., 1486., 1486., 1486., 1486., 1486., 1486., 1486., 1486., 1486., 1486., 1486., 1486., 1486., 1486., 1486., 1486., 1486., 1486., 1486., 1486., 1486., 1486., 1486., 1486., 1486., 1486., 1486., 1486., 1486., 1486., 1486., 1486., 1486., 1486., 1486., 1486., 1486., 1486., 1.48581250e+03, 1486., 1486., 1486., 1486., 1486., 1486., 1486., 1.48675000e+03, 1.49049988e+03, 1.49199414e+03, 1486., 1.49198083e+03, 1486., 1.48618750e+03, 1486., 1486., 1486., 1.48787500e+03, 1.48750000e+03, 1.49177393e+03, 1492., 1.49197656e+03, 1492., 1492., 1492., 1492., 1.49200085e+03, 1492., 1.49185938e+03, 1.49195312e+03, 1.48600293e+03, 1.48715430e+03, 1486., 1486., 1486., 1.48901245e+03, 1492., 1492., 1.49201440e+03, 1.49630750e+03, 1.49812329e+03, 1.49200061e+03, 1.49203174e+03, 1492., 1.48602344e+03, 1486., 1486., 1486., 1486., 1486., 1486., 1.48865198e+03, 1.49162842e+03, 1.49162866e+03, 1.48872217e+03, 1492., 1.48873511e+03, 1.49375000e+03, 1492., 1.48609375e+03, 1486., 1486., 1486., 1486., 1486., 1486., 1486., 1486., 1.48609399e+03, 1.48946899e+03, 1492., 1.49197620e+03, 1492., 1492., 1492., 1492., 1492., 1492., 1.49195276e+03, 1492., 1492., 1492., 1492., 1.49210938e+03, 1492., 1.49216455e+03, 1.49216907e+03, 1.49205469e+03, 1.49205640e+03, 1499., 1.49855054e+03, 1.49898804e+03, 1.49900171e+03, 1.49897241e+03, 1.49897095e+03, 1.50506006e+03, 1.49763855e+03, 1492., 1492., 1492.,
       1506., 1506., 1499., 1499., 1.49897266e+03, 1499., 1499., 1499., 1499., 1499., 1499., 1.49939868e+03, 1499., 1499., 1499., 1499., 1499., 1499., 1499., 1499., 1499., 1499., 1499., 1499., 1499., 1499., 1499., 1499., 1499., 1499., 1.49903333e+03, 1499., 1499., 1499., 1499., 1.49900171e+03, 1.50004773e+03, 1499., 1499., 1.49906152e+03, 1.49905469e+03, 1.49916406e+03, 1.49917090e+03, 1.49910938e+03, 1499., 1499., 1499., 1.49767871e+03, 1.49213672e+03, 1.49243030e+03, 1.49235974e+03, 1492., 1492., 1.49216528e+03, 1.49216492e+03, 1.49217200e+03, 1492., 1492., 1492., 1486., 1486., 1.48628125e+03, 1.48637012e+03, 1.48635181e+03, 1.48899976e+03, 1.48604688e+03, 1486., 1486., 1486., 1486., 1486., 1486., 1486., 1486., 1486., 1486., 1486., 1.48672656e+03, 1.49049976e+03, 1486., 1.48600024e+03, 1.48888281e+03, 1492., 1.48623523e+03, 1492., 1492., 1492., 1492., 1492., 1492., 1492., 1.49200085e+03, 1492., 1.49202820e+03, 1492., 1492., 1492., 1492., 1492., 1.49104102e+03, 1.49198828e+03, 1486., 1.48759387e+03, 1486., 1486., 1486., 1486., 1486., 1486., 1486., 1486., 1486., 1486., 1486., 1486., 1486., 1486., 1486., 1486., 1486., 1486., 1486., 1486., 1486., 1486., 1486., 1486., 1486., 1486., 1486., 1486., 1486., 1486., 1486., 1486., 1486., 1486., 1486., 1486., 1486., 1486., 1486., 1486., 1486., 1486., 1486., 1486., 1486., 1486., 1486., 1486., 1486., 1486., 1486., 1486., 1486., 1486., 1486., 1486., 1486., 1486., 1486., 1486., 1486., 1486., 1.48718457e+03, 1.48736035e+03, 1486., 1.48898047e+03, 1486., 1486., 1486., 1486., 1486., 1.48750000e+03, 1.49050000e+03, 1.48867407e+03, 1.49178613e+03, 1.49178906e+03, 1492., 1.49169238e+03, 1492., 1492., 1.49593835e+03, 1492., 1.49195312e+03, 1492., 1.49195312e+03, 1492., 1486., 1486., 1486., 1.48976245e+03, 1492., 1492., 1492., 1492., 1492., 1492., 1492., 1492., 1486., 1486., 1486., 1486., 1486., 1486., 1486., 1.48750342e+03, 1.48865186e+03, 1.49166382e+03, 1.48825342e+03, 1492., 1.48873364e+03, 1492., 1489., 1.48609375e+03, 1486., 1486., 1.48609375e+03, 1486., 1486., 1486., 1486., 1486., 1486., 1486., 1.48970703e+03, 1.48609753e+03, 1.48859973e+03, 1492., 1492., 1492., 1492., 1492., 1.48894531e+03, 1492., 1492., 1492., 1492., 1492., 1492., 1.49216455e+03, 1.49216455e+03, 1492., 1.48633313e+03, 1.49211292e+03, 1.49211292e+03, 1.49211292e+03, 1.49897437e+03, 1.49513770e+03, 1.49899829e+03, 1.50502930e+03, 1.49884180e+03, 1492., 1492., 1492.,
       1506., 1506., 1.49900684e+03, 1499., 1499., 1499., 1499., 1499., 1499., 1499., 1499., 1.49940247e+03, 1499., 1499., 1499., 1499., 1499., 1499., 1499., 1499., 1499., 1499., 1499., 1499., 1499., 1499., 1499., 1499., 1499., 1499., 1499., 1499., 1499., 1499., 1.49375000e+03, 1.49375000e+03, 1499., 1.49374634e+03, 1.49217285e+03, 1.49549658e+03, 1.49899658e+03, 1499., 1499., 1.49502979e+03, 1.49210938e+03, 1492., 1492., 1.49210938e+03, 1492., 1492., 1492., 1492., 1492., 1.49210938e+03, 1.49216528e+03, 1.49205469e+03, 1492., 1492., 1492., 1486., 1486., 1486., 1486., 1486., 1486., 1486., 1486., 1486., 1486., 1486., 1486., 1486., 1486., 1486., 1486., 1486., 1486., 1.48636328e+03, 1.48749451e+03, 1.48675610e+03, 1.48602954e+03, 1.48652795e+03, 1.48600598e+03, 1486., 1486., 1486., 1.48644775e+03, 1.48602417e+03, 1.48602417e+03, 1.48907544e+03, 1.48602563e+03, 1.49170679e+03, 1.48602563e+03, 1.49180078e+03, 1486., 1.49104688e+03, 1.49198828e+03, 1.49198828e+03, 1492., 1.48759534e+03, 1.49123730e+03, 1486., 1492., 1486., 1486., 1486., 1486., 1486., 1486., 1486., 1486., 1.48600586e+03, 1486., 1486., 1486., 1486., 1486., 1486., 1486., 1486., 1486., 1486., 1486., 1.49076929e+03, 1486., 1.48619336e+03, 1486., 1486., 1486., 1486., 1486., 1486., 1486., 1486., 1486., 1486., 1486., 1486., 1486., 1486., 1486., 1486., 1486., 1486., 1486., 1486., 1486., 1486., 1486., 1486., 1486., 1486., 1486., 1486., 1486., 1486., 1.48056250e+03, 1486., 1486., 1486., 1486., 1486., 1486., 1486., 1486., 1.48717212e+03, 1.48604688e+03, 1486., 1.48707812e+03, 1486., 1486., 1486., 1486., 1486., 1486., 1486., 1486., 1486., 1486., 1.49012585e+03, 1486., 1.48909448e+03, 1492., 1492., 1.49195300e+03, 1.48900293e+03, 1486., 1486., 1.48677673e+03, 1486., 1486., 1486., 1486., 1.48601221e+03, 1.48747070e+03, 1.49049268e+03, 1.49049414e+03, 1492., 1492., 1492., 1.48659131e+03, 1486., 1486., 1486., 1486., 1486., 1486., 1486., 1486., 1.48750000e+03, 1.48750049e+03, 1486., 1.48880444e+03, 1.48759399e+03, 1492., 1.48784351e+03, 1.48782837e+03, 1486., 1486., 1.48803052e+03, 1.48609375e+03, 1.48604688e+03, 1486., 1486., 1486., 1.48600073e+03, 1.48600073e+03, 1.49085547e+03, 1.48600073e+03, 1.48600024e+03, 1.48857031e+03, 1.49161719e+03, 1.48858789e+03, 1.48896155e+03, 1.48853223e+03, 1.48600012e+03, 1492., 1492., 1492., 1492., 1492., 1492., 1.49205469e+03, 1492., 1.49199414e+03, 1.48604834e+03, 1.49016968e+03, 1.49016797e+03, 1.49205640e+03, 1.49382056e+03, 1.49200171e+03, 1.49426599e+03, 1.49899658e+03, 1.49943408e+03, 1492., 1.49243774e+03, 1492.,
       1506., 1506., 1.49900684e+03, 1499., 1499., 1499., 1499., 1499., 1499., 1499., 1.50246582e+03, 1506., 1.49984961e+03, 1499., 1499., 1499., 1499., 1499., 1499., 1499., 1.49923633e+03, 1.49944092e+03, 1499., 1499., 1499., 1499., 1499., 1499., 1499., 1499., 1499., 1499., 1499., 1.49216675e+03, 1.49205640e+03, 1.49205469e+03, 1492., 1492., 1492., 1.49205469e+03, 1.49205469e+03, 1492., 1492., 1492., 1492., 1492., 1492., 1492., 1492., 1492., 1492., 1492., 1492., 1492., 1492., 1492., 1492., 1492., 1492., 1486., 1486., 1486., 1486., 1486., 1486., 1486., 1486., 1486., 1486., 1486., 1486., 1486., 1486., 1486., 1486., 1486., 1486., 1.48609375e+03, 1.48673865e+03, 1486., 1.48602930e+03, 1.48600586e+03, 1486., 1486., 1486., 1486., 1486., 1486., 1486., 1.48600073e+03, 1486., 1.48600220e+03, 1.48600073e+03, 1.48992578e+03, 1.48612378e+03, 1.48919519e+03, 1.49198804e+03, 1.49086304e+03, 1.49012280e+03, 1.48609375e+03, 1.49085901e+03, 1486., 1.49102161e+03, 1486., 1486., 1486., 1486., 1486., 1486., 1486., 1486., 1486., 1486., 1486., 1486., 1486., 1486., 1486., 1486., 1486., 1486., 1486., 1486., 1.48769702e+03, 1486., 1486., 1486., 1486., 1486., 1486., 1486., 1486., 1486., 1486., 1486., 1486., 1486., 1486., 1486., 1486., 1486., 1486., 1486., 1486., 1486., 1486., 1486., 1486., 1486., 1486., 1486., 1.48571875e+03, 1486., 1486., 1486., 1486., 1480., 1.48309082e+03, 1.48004199e+03, 1486., 1486., 1486., 1486., 1486., 1486., 1486., 1486., 1486., 1486., 1486., 1486., 1486., 1486., 1486., 1486., 1486., 1486., 1486., 1486., 1486., 1486., 1486., 1.48600073e+03, 1.49031763e+03, 1.48919165e+03, 1486., 1486., 1486., 1486., 1486., 1486., 1486., 1486., 1.48600037e+03, 1.49047070e+03, 1.48604761e+03, 1.49049414e+03, 1.49199414e+03, 1492., 1492., 1.49038831e+03, 1486., 1486., 1486., 1486., 1486., 1486., 1486., 1486., 1486., 1486., 1486., 1.49110474e+03, 1.48821533e+03, 1.49199121e+03, 1.48826221e+03, 1.48609375e+03, 1.48750000e+03, 1486., 1486., 1486., 1486., 1486., 1486., 1486., 1.48600073e+03, 1.48600073e+03, 1.49085547e+03, 1.48600073e+03, 1.48600085e+03, 1.48929688e+03, 1.49082031e+03, 1.48600024e+03, 1.48600024e+03, 1486., 1486., 1.49195312e+03, 1492., 1492., 1492., 1492., 1.49199414e+03, 1492., 1492., 1.48635742e+03, 1486., 1.48995203e+03, 1.48679736e+03, 1.49205469e+03, 1.49382056e+03, 1.49200171e+03, 1.49200171e+03, 1.49899658e+03, 1.49896191e+03, 1492., 1.49446106e+03, 1.49205469e+03,
       1506., 1506., 1.50256836e+03, 1499., 1499., 1499., 1499., 1499., 1499., 1499., 1.49905469e+03, 1506., 1.49927344e+03, 1499., 1499., 1499., 1499., 1499., 1499., 1499., 1499., 1499., 1499., 1499., 1499., 1499., 1499., 1.49899915e+03, 1.49290234e+03, 1.49301611e+03, 1492., 1492., 1492., 1492., 1492., 1492., 1492., 1492., 1492., 1492., 1492., 1492., 1492., 1492., 1492., 1492., 1492., 1492., 1492., 1492., 1492., 1492., 1492., 1492., 1492., 1492., 1492., 1492., 1492., 1486., 1486., 1486., 1486., 1486., 1486., 1486., 1486., 1.48604688e+03, 1486., 1486., 1486., 1486., 1486., 1486., 1486., 1486., 1486., 1486., 1.48631677e+03, 1486., 1486., 1486., 1486., 1486., 1486., 1486., 1486., 1486., 1486., 1486., 1486., 1486., 1486., 1486., 1486., 1486., 1.48764209e+03, 1486., 1.48930957e+03, 1486., 1486., 1486., 1.48827356e+03, 1486., 1486., 1486., 1486., 1486., 1486., 1486., 1486., 1486., 1486., 1486., 1486., 1486., 1486., 1486., 1486., 1486., 1486., 1486., 1486., 1486., 1486., 1486., 1486., 1486., 1486., 1486., 1.48423987e+03, 1.48595166e+03, 1.48595312e+03, 1.48595166e+03, 1486., 1486., 1486., 1486., 1486., 1486., 1486., 1486., 1.48525000e+03, 1486., 1486., 1486., 1486., 1486., 1486., 1486., 1486., 1.48571875e+03, 1486., 1.48494531e+03, 1486., 1486., 1480., 1.48477820e+03, 1480., 1.48412305e+03, 1.48140430e+03, 1486., 1486., 1486., 1486., 1486., 1486., 1486., 1486., 1486., 1486., 1486., 1486., 1486., 1486., 1486., 1486., 1486., 1486., 1486., 1486., 1486., 1.48900220e+03, 1.49190576e+03, 1492., 1486., 1486., 1486., 1486., 1486., 1486., 1.48449414e+03, 1486., 1486., 1.48675000e+03, 1486., 1486., 1.49047070e+03, 1.49049414e+03, 1.49045886e+03, 1486., 1486., 1486., 1486., 1486., 1486., 1486., 1486., 1486., 1486., 1486., 1486., 1.48750000e+03, 1.48750000e+03, 1.48825000e+03, 1.48826221e+03, 1486., 1486., 1486., 1486., 1486., 1486., 1486., 1486., 1486., 1.48600073e+03, 1486., 1486., 1486., 1486., 1.48600085e+03, 1.48600012e+03, 1486., 1486., 1486., 1486., 1.49191504e+03, 1492., 1492., 1492., 1492., 1492., 1.49205469e+03, 1.49217749e+03, 1.49203723e+03, 1.48605188e+03, 1.49204297e+03, 1.49001367e+03, 1.49198828e+03, 1492., 1492., 1492., 1.49867261e+03, 1.49868628e+03, 1492., 1.49424219e+03, 1.49205469e+03,
       1.50578125e+03, 1506., 1.50487891e+03, 1499., 1499., 1.50261975e+03, 1.50262012e+03, 1499., 1.49905469e+03, 1.49916406e+03, 1.50202405e+03, 1506., 1.49938281e+03, 1499., 1499., 1499., 1499., 1.49549988e+03, 1.49375000e+03, 1499., 1499., 1499., 1499., 1.49363782e+03, 1.49201392e+03, 1.49899976e+03, 1.49328369e+03, 1492., 1492., 1492., 1492., 1492., 1492., 1492., 1492., 1492., 1492., 1492., 1492., 1492., 1492., 1492., 1.49205469e+03, 1.49730518e+03, 1492., 1492., 1492., 1492., 1492., 1492., 1492., 1492., 1492., 1492., 1492., 1492., 1492., 1492., 1492., 1486., 1486., 1486., 1486., 1486., 1.48621460e+03, 1.49106213e+03, 1.48795703e+03, 1.48645667e+03, 1.48795630e+03, 1486., 1486., 1486., 1486., 1486., 1486., 1486., 1486., 1486., 1486., 1486., 1486., 1486., 1486., 1486., 1486., 1486., 1486., 1486., 1486., 1486., 1486., 1486., 1486., 1486., 1486., 1486., 1486., 1486., 1486., 1486., 1486., 1486., 1486., 1486., 1486., 1486., 1486., 1486., 1486., 1486., 1486., 1486., 1486., 1.48599951e+03, 1486., 1486., 1486., 1486., 1486., 1486., 1486., 1486., 1486., 1486., 1486., 1486., 1486., 1486., 1486., 1486., 1.48574060e+03, 1486., 1.48595312e+03, 1.48112549e+03, 1486., 1486., 1486., 1.48283667e+03, 1.48283643e+03, 1480., 1.48223645e+03, 1486., 1480., 1486., 1486., 1486., 1486., 1486., 1486., 1486., 1486., 1.48000012e+03, 1486., 1480., 1480., 1480., 1480., 1480., 1480., 1480., 1480., 1486., 1486., 1486., 1486., 1486., 1486., 1486., 1486., 1486., 1486., 1486., 1486., 1486., 1486., 1486., 1.48569031e+03, 1486., 1486., 1486., 1486., 1486., 1.48637524e+03, 1.49163037e+03, 1492., 1486., 1486., 1486., 1486., 1486., 1486., 1486., 1486., 1486., 1486., 1486., 1486., 1.49049414e+03, 1.49048242e+03, 1.49048242e+03, 1486., 1486., 1486., 1486., 1486., 1486., 1486., 1486., 1486., 1486., 1486., 1486., 1486., 1486., 1486., 1486., 1486., 1486., 1486., 1486., 1486., 1486., 1486., 1486., 1486., 1486., 1486., 1486., 1486., 1486., 1.48600012e+03, 1486., 1486., 1486., 1486., 1486., 1.48732043e+03, 1.49198535e+03, 1.48896191e+03, 1492., 1492., 1492., 1.49217590e+03, 1.49234155e+03, 1.49203723e+03, 1486., 1.49177148e+03, 1.48675354e+03, 1.49187097e+03, 1492., 1492., 1492., 1.49861926e+03, 1.49867432e+03, 1.49243750e+03, 1.49897266e+03, 1.49808508e+03,
       1.50490625e+03, 1.50578125e+03, 1.50076819e+03, 1499., 1499., 1.49900342e+03, 1.49900391e+03, 1499., 1.49917847e+03, 1.50114722e+03, 1.50249915e+03, 1506., 1499., 1499., 1499., 1499., 1.49353125e+03, 1492., 1.49221875e+03, 1.49357190e+03, 1.49899976e+03, 1.49200049e+03, 1.49363782e+03, 1492., 1492., 1.49724683e+03, 1.49200012e+03, 1492., 1492., 1492., 1492., 1492., 1492., 1492., 1492., 1492., 1492., 1492., 1492., 1492., 1492., 1492., 1492., 1.49200049e+03, 1492., 1492., 1492., 1492., 1492., 1492., 1492., 1492., 1492., 1492., 1492., 1492., 1492., 1492., 1492., 1486., 1486., 1486., 1486., 1486., 1486., 1.48604980e+03, 1486., 1486., 1.48792700e+03, 1486., 1486., 1486., 1486., 1486., 1486., 1486., 1486., 1.48759375e+03, 1.48684961e+03, 1486., 1486., 1486., 1486., 1486., 1486., 1486., 1486., 1486., 1486., 1486., 1486., 1486., 1486., 1486., 1.48000769e+03, 1480., 1486., 1.48551880e+03, 1486., 1486., 1486., 1486., 1486., 1486., 1486., 1486., 1486., 1486., 1486., 1486., 1486., 1486., 1483., 1480., 1.48077942e+03, 1.48281104e+03, 1.48075598e+03, 1.48079407e+03, 1486., 1486., 1486., 1486., 1486., 1486., 1486., 1486., 1486., 1.48599854e+03, 1486., 1.48046899e+03, 1480., 1480., 1480., 1480., 1.48123389e+03, 1.48296851e+03, 1.48018750e+03, 1480., 1.48168799e+03, 1480., 1480., 1.48525000e+03, 1480., 1.48525000e+03, 1.48170898e+03, 1486., 1486., 1486., 1486., 1.48597607e+03, 1486., 1.48020972e+03, 1.48588232e+03, 1480., 1480., 1480., 1480., 1480., 1480., 1480., 1480., 1.48000073e+03, 1.48375073e+03, 1.48357520e+03, 1486., 1486., 1486., 1486., 1486., 1486., 1486., 1.48599707e+03, 1.48299707e+03, 1.48599707e+03, 1.48599707e+03, 1.48543250e+03, 1480., 1.48590625e+03, 1486., 1486., 1486., 1486., 1486., 1486., 1486., 1486., 1486., 1.48449390e+03, 1486., 1480., 1.48004688e+03, 1.48079688e+03, 1.48391956e+03, 1486., 1486., 1486., 1486., 1.48689062e+03, 1.48614062e+03, 1.48614062e+03, 1486., 1486., 1486., 1486., 1486., 1486., 1486., 1486., 1486., 1.48196875e+03, 1.48085547e+03, 1480., 1.48521558e+03, 1486., 1486., 1486., 1486., 1486., 1486., 1486., 1486., 1486., 1486., 1486., 1486., 1486., 1486., 1486., 1486., 1486., 1486., 1486., 1486., 1486., 1486., 1486., 1.49198535e+03, 1492., 1492., 1.49277576e+03, 1.49254846e+03, 1492., 1.49554614e+03, 1.50016101e+03, 1.49210950e+03, 1.49198828e+03, 1.49198828e+03, 1.49191650e+03, 1.49187109e+03, 1.49198828e+03, 1492., 1492., 1.49424255e+03, 1.49899231e+03, 1.49429688e+03, 1.49283398e+03, 1.49232812e+03,
       1.49901794e+03, 1.49900342e+03, 1499., 1499., 1499., 1499., 1499., 1499., 1.49900049e+03, 1.50245947e+03, 1.50244580e+03, 1506., 1499., 1499., 1.49284814e+03, 1.49364111e+03, 1.49221875e+03, 1492., 1492., 1.49222046e+03, 1.49314038e+03, 1.49200220e+03, 1.49270300e+03, 1492., 1492., 1492., 1492., 1492., 1492., 1492., 1492., 1492., 1492., 1.48711877e+03, 1.48749414e+03, 1.49050000e+03, 1492., 1492., 1492., 1492., 1492., 1492., 1492., 1.49550049e+03, 1492., 1492., 1492., 1492., 1492., 1492., 1492., 1492., 1492., 1492., 1492., 1492., 1492., 1492., 1492., 1486., 1486., 1486., 1486., 1486., 1486., 1.48600146e+03, 1486., 1486., 1.48637720e+03, 1486., 1486., 1486., 1486., 1486., 1486., 1486., 1486., 1.48609399e+03, 1486., 1486., 1486., 1486., 1486., 1486., 1486., 1486., 1486., 1486., 1486., 1486., 1486., 1486., 1486., 1486., 1.48562415e+03, 1.48561255e+03, 1486., 1.48599927e+03, 1486., 1.48548364e+03, 1486., 1486., 1486., 1486., 1486., 1486., 1.48599988e+03, 1.48194678e+03, 1486., 1.48000586e+03, 1.48299951e+03, 1.48280823e+03, 1.48229102e+03, 1480., 1.48265735e+03, 1486., 1480., 1.48229492e+03, 1486., 1.48562476e+03, 1486., 1486., 1486., 1486., 1486., 1486., 1486., 1.48516223e+03, 1486., 1.48572522e+03, 1.48037500e+03, 1.48085583e+03, 1480., 1480., 1.48423096e+03, 1486., 1480., 1480., 1486., 1.48472815e+03, 1486., 1.48525000e+03, 1.48000293e+03, 1.48525000e+03, 1.48152063e+03, 1486., 1.48484888e+03, 1486., 1.48522656e+03, 1.48583472e+03, 1.48599963e+03, 1.48001343e+03, 1.48597607e+03, 1480., 1480., 1480., 1480., 1480., 1480., 1480., 1480., 1480., 1480., 1480., 1.48132520e+03, 1.48139624e+03, 1486., 1.48139746e+03, 1486., 1.48098486e+03, 1480., 1480., 1480., 1480., 1480., 1480., 1480., 1480., 1.48000024e+03, 1.48569409e+03, 1.48418823e+03, 1.48571216e+03, 1.48590625e+03, 1486., 1486., 1.48571265e+03, 1.48379688e+03, 1480., 1.48599390e+03, 1480., 1480., 1480., 1480., 1486., 1486., 1486., 1.48599414e+03, 1486., 1486., 1486., 1486., 1486., 1486., 1486., 1486., 1486., 1486., 1486., 1.48281250e+03, 1480., 1480., 1480., 1480., 1.48004688e+03, 1.48334021e+03, 1.48024609e+03, 1486., 1486., 1486., 1486., 1486., 1486., 1486., 1486., 1.48524963e+03, 1486., 1486., 1486., 1.48525000e+03, 1486., 1.48609375e+03, 1486., 1486., 1486., 1480., 1486., 1.48600586e+03, 1.48722681e+03, 1.48896484e+03, 1.49277576e+03, 1.49257593e+03, 1.49200049e+03, 1499., 1.49465747e+03, 1.49221875e+03, 1.49193408e+03, 1.49196484e+03, 1.48600024e+03, 1.49050037e+03, 1.49196338e+03, 1.49198828e+03, 1492., 1.49862354e+03, 1.49889062e+03, 1492., 1.49288867e+03, 1492.,
       1499., 1499., 1.49527820e+03, 1.49527905e+03, 1.49393152e+03, 1499., 1499., 1499., 1499., 1499., 1499., 1.49916406e+03, 1499., 1.49549976e+03, 1.49284949e+03, 1.49232812e+03, 1.49221875e+03, 1492., 1.49221875e+03, 1.49225171e+03, 1.49812390e+03, 1.49200220e+03, 1.49223584e+03, 1492., 1492., 1492., 1492., 1492., 1492., 1492., 1492., 1492., 1492., 1.48611816e+03, 1.48611804e+03, 1.48611816e+03, 1492., 1492., 1492., 1492., 1492., 1492., 1492., 1.49550000e+03, 1.49550000e+03, 1492., 1492., 1492., 1492., 1492., 1492., 1492., 1492., 1492., 1492., 1492., 1492., 1492., 1492., 1486., 1486., 1486., 1486., 1486., 1486., 1486., 1486., 1486., 1486., 1486., 1486., 1.48656250e+03, 1486., 1486., 1486., 1486., 1486., 1.48600293e+03, 1486., 1486., 1486., 1486., 1486., 1486., 1.48590625e+03, 1.48454871e+03, 1.48598535e+03, 1486., 1486., 1486., 1486., 1486., 1486., 1486., 1486., 1486., 1486., 1486., 1486., 1486., 1486., 1486., 1.48187329e+03, 1.48018750e+03, 1.48024402e+03, 1.48409961e+03, 1.48152344e+03, 1480., 1.48189844e+03, 1480., 1.48290198e+03, 1.48299609e+03, 1.48266614e+03, 1480., 1.48266956e+03, 1486., 1.48079407e+03, 1.48079492e+03, 1.48412476e+03, 1.48012683e+03, 1486., 1486., 1486., 1486., 1486., 1486., 1.48576367e+03, 1480., 1480., 1480., 1480., 1480., 1480., 1480., 1480., 1480., 1480., 1480., 1.48599414e+03, 1.48000232e+03, 1.48261877e+03, 1.48299963e+03, 1480., 1.48000293e+03, 1480., 1.48562500e+03, 1480., 1.48020801e+03, 1480., 1.48001782e+03, 1.48523413e+03, 1.48151343e+03, 1.48170972e+03, 1480., 1480., 1480., 1480., 1480., 1480., 1480., 1480., 1480., 1480., 1480., 1486., 1486., 1486., 1486., 1486., 1486., 1.48599927e+03, 1.48034131e+03, 1480., 1.48009375e+03, 1480., 1480., 1480., 1480., 1.48077637e+03, 1.48380005e+03, 1.48117627e+03, 1.48113965e+03, 1.48418823e+03, 1.48590625e+03, 1486., 1483., 1.47999976e+03, 1480., 1.48382361e+03, 1480., 1.48075000e+03, 1480., 1.48000073e+03, 1486., 1486., 1486., 1486., 1486., 1.48599414e+03, 1.48274414e+03, 1.49978369e+03, 1.50296094e+03, 1.48704956e+03, 1.48780078e+03, 1.48775757e+03, 1486., 1486., 1486., 1.48274390e+03, 1480., 1480., 1480., 1480., 1480., 1480., 1480., 1486., 1486., 1.49002234e+03, 1.48676172e+03, 1.94691406e+03, 1.78245068e+03, 1486., 1.48525000e+03, 1.48154761e+03, 1.49250159e+03, 1486., 1.48599976e+03, 1.48470007e+03, 1.48301257e+03, 1.48534448e+03, 1.48325952e+03, 1.88476758e+03, 1.48723950e+03, 1480., 1.48042383e+03, 1486., 1.76767554e+03, 1.95432544e+03, 1.95765625e+03, 1.95103064e+03, 1.95791138e+03, 1947., 1947., 1.94691370e+03, 1.93177014e+03, 1.94667810e+03, 1.94179932e+03, 1.50050879e+03, 1.49104089e+03, 1.49885498e+03, 1499., 1.49889062e+03, 1.50304431e+03, 1499., 1.49901367e+03, 1.49570837e+03,
       1499., 1499., 1.49464917e+03, 1.49388354e+03, 1.49376782e+03, 1499., 1499., 1499., 1499., 1499., 1499., 1499., 1499., 1.49221875e+03, 1492., 1492., 1492., 1492., 1492., 1492., 1.49214233e+03, 1.49200220e+03, 1.49631946e+03, 1.49200342e+03, 1492., 1492., 1492., 1492., 1492., 1492., 1492., 1492., 1492., 1492., 1.49199963e+03, 1.49050000e+03, 1492., 1492., 1492., 1492., 1.49550000e+03, 1492., 1492., 1.49550342e+03, 1492., 1492., 1492., 1492., 1492., 1492., 1492., 1492., 1492., 1492., 1492., 1492., 1492., 1492., 1492., 1486., 1486., 1.48599976e+03, 1486., 1.48523828e+03, 1486., 1486., 1486., 1486., 1486., 1486., 1486., 1486., 1486., 1486., 1486., 1486., 1486., 1.48676465e+03, 1486., 1486., 1486., 1486., 1486., 1.48450037e+03, 1483., 1480., 1480., 1.48589160e+03, 1.48568066e+03, 1.48004834e+03, 1.48076318e+03, 1486., 1.48280920e+03, 1486., 1.48449915e+03, 1.48449927e+03, 1486., 1486., 1486., 1486., 1486., 1.48599854e+03, 1.48019629e+03, 1480., 1.47994531e+03, 1480., 1480., 1.47829102e+03, 1.47994519e+03, 1.47999829e+03, 1480., 1.48041602e+03, 1.48191016e+03, 1480., 1.48002991e+03, 1486., 1.48003247e+03, 1.48000610e+03, 1.48000659e+03, 1.48000586e+03, 1486., 1486., 1.48149500e+03, 1.48299854e+03, 1486., 1.48220312e+03, 1480., 1480., 1480., 1480., 1480., 1480., 1480., 1480., 1480., 1480., 1480., 1480., 1486., 1.48525000e+03, 1486., 1.48112817e+03, 1480., 1480., 1480., 1480., 1480., 1480., 1480., 1480., 1480., 1480., 1.47912500e+03, 1480., 1.47912500e+03, 1480., 1480., 1480., 1480., 1480., 1480., 1480., 1480., 1480., 1486., 1486., 1486., 1486., 1486., 1486., 1.48034155e+03, 1.48028125e+03, 1480., 1480., 1480., 1480., 1480., 1480., 1480., 1480., 1480., 1480., 1480., 1.48417627e+03, 1.48421777e+03, 1.47813953e+03, 1.47650256e+03, 1.47988269e+03, 1480., 1480., 1.48532959e+03, 1.48169116e+03, 1.48000073e+03, 1486., 1486., 1486., 1.48599414e+03, 1.48599414e+03, 1.55858325e+03, 1.81157922e+03, 1.93582544e+03, 1936., 1.94670691e+03, 1.94635742e+03, 1.70775928e+03, 1.67714880e+03, 1.48461218e+03, 1.48204651e+03, 1480., 1.47649658e+03, 1.47311108e+03, 1473., 1.47360876e+03, 1.83373657e+03, 1925., 1925., 1.92569153e+03, 1.92569153e+03, 1.93293262e+03, 1.93312109e+03, 1936., 1.94691406e+03, 1947., 1947., 1947., 1947., 1947., 1947., 1947., 1.94699976e+03, 1.93599707e+03, 1.92907312e+03, 1.92910571e+03, 1.92860046e+03, 1.87209937e+03, 1.93606494e+03, 1.93153394e+03, 1.93814270e+03, 1.94977295e+03, 1.94990186e+03, 1.94700537e+03, 1.95119629e+03, 1.94691089e+03, 1.94669604e+03, 1.94463135e+03, 1.94184375e+03, 1.94691113e+03, 1.94618066e+03, 1.94478320e+03, 1.94150000e+03, 1.93736304e+03, 1.85820715e+03, 1.50948767e+03, 1958., 1947., 1.72170764e+03, 1.94176794e+03,
       1492., 1.49527820e+03, 1492., 1492., 1492., 1499., 1499., 1499., 1499., 1.49921875e+03, 1.49921875e+03, 1.50597314e+03, 1499., 1.49547314e+03, 1492., 1492., 1492., 1492., 1492., 1492., 1492., 1492., 1.49216064e+03, 1.49201196e+03, 1492., 1.49200684e+03, 1.49292285e+03, 1492., 1492., 1492., 1492., 1492., 1492., 1492., 1492., 1492., 1492., 1492., 1492., 1492., 1.49747388e+03, 1492., 1.49572217e+03, 1.49843091e+03, 1.49572217e+03, 1492., 1492., 1492., 1492., 1492., 1492., 1492., 1492., 1492., 1492., 1492., 1492., 1492., 1492., 1486., 1486., 1.48594678e+03, 1486., 1.48523828e+03, 1486., 1486., 1486., 1486., 1486., 1486., 1486., 1486., 1486., 1486., 1486., 1486., 1486., 1.49143750e+03, 1.48798145e+03, 1486., 1486., 1486., 1486., 1.48580371e+03, 1.48567456e+03, 1480., 1.48000146e+03, 1486., 1486., 1480., 1.48226929e+03, 1486., 1.48599963e+03, 1486., 1486., 1.48405383e+03, 1486., 1486., 1486., 1.48449890e+03, 1.48449963e+03, 1486., 1480., 1480., 1.47994482e+03, 1480., 1.47994482e+03, 1473., 1.47302734e+03, 1473., 1.47824951e+03, 1.47825000e+03, 1.47825659e+03, 1.64314453e+03, 1480., 1480., 1480., 1.47998633e+03, 1.47998633e+03, 1480., 1480., 1.48110754e+03, 1480., 1480., 1.48122473e+03, 1.48595312e+03, 1.48002368e+03, 1480., 1480., 1480., 1480., 1480., 1480., 1480., 1480., 1.48001172e+03, 1480., 1480., 1486., 1.48362500e+03, 1.48597510e+03, 1.48297510e+03, 1.48221326e+03, 1480., 1480., 1.48019360e+03, 1480., 1480., 1.47999915e+03, 1.66553174e+03, 1.84098022e+03, 1.91561731e+03, 1.48808032e+03, 1.47514661e+03, 1.46909827e+03, 1.54206592e+03, 1.47588599e+03, 1480., 1.47928015e+03, 1480., 1480., 1480., 1.48075000e+03, 1.48406860e+03, 1486., 1486., 1.49194922e+03, 1486., 1486., 1486., 1.48014087e+03, 1.48009375e+03, 1480., 1480., 1480., 1480., 1480., 1480., 1.48302930e+03, 1.57145569e+03, 1.91746619e+03, 1.92453162e+03, 1.91690527e+03, 1915., 1915., 1915., 1915., 1915., 1.70288464e+03, 1.48600342e+03, 1.51481604e+03, 1.65462231e+03, 1.48600012e+03, 1.94337024e+03, 1.93943750e+03, 1.65351489e+03, 1.71127271e+03, 1.93418970e+03, 1.92849158e+03, 1.93901221e+03, 1.94811450e+03, 1.94699731e+03, 1947., 1947., 1947., 1947., 1947., 1.94699927e+03, 1.93594702e+03, 1.50362427e+03, 1.91691211e+03, 1.90295068e+03, 1.92519238e+03, 1.92250000e+03, 1925., 1925., 1.92500500e+03, 1.92500134e+03, 1.92500769e+03, 1.92574121e+03, 1.93325000e+03, 1936., 1.94289819e+03, 1.94424976e+03, 1.94424780e+03, 1947., 1947., 1947., 1.94699927e+03, 1947., 1936., 1.93668896e+03, 1.93668896e+03, 1936., 1.93995020e+03, 1.94097070e+03, 1.94114258e+03, 1.94097070e+03, 1.94707129e+03, 1.94704846e+03, 1.94700537e+03, 1.94700537e+03, 1.94699731e+03, 1.94691370e+03, 1.94531958e+03, 1.94205530e+03, 1.94691138e+03, 1.94686816e+03, 1.94631250e+03, 1.94442188e+03, 1.94447705e+03, 1.94630981e+03, 1.94700037e+03, 1.95402588e+03, 1947., 1947., 1.94596191e+03,
       1.48876416e+03, 1.49202417e+03, 1492., 1.49201367e+03, 1492., 1.49899744e+03, 1.49855994e+03, 1499., 1.50271924e+03, 1.50250049e+03, 1.49902734e+03, 1.49902734e+03, 1499., 1.49898523e+03, 1492., 1492., 1492., 1492., 1492., 1492., 1492., 1492., 1492., 1492., 1492., 1492., 1492., 1492., 1492., 1492., 1492., 1492., 1492., 1492., 1492., 1492., 1.49199988e+03, 1.49199951e+03, 1492., 1492., 1.49506189e+03, 1.49199988e+03, 1.49837390e+03, 1.49838721e+03, 1.49855127e+03, 1.49577515e+03, 1.49571875e+03, 1.49572046e+03, 1492., 1.49200342e+03, 1492., 1492., 1492., 1492., 1492., 1492., 1492., 1.49202844e+03, 1.49158875e+03, 1.48594666e+03, 1.48595276e+03, 1.48594666e+03, 1486., 1.48518506e+03, 1.48598242e+03, 1486., 1486., 1486., 1486., 1.48598828e+03, 1.48598682e+03, 1486., 1.48599854e+03, 1.48281030e+03, 1.48280994e+03, 1486., 1486., 1.48835840e+03, 1.48601196e+03, 1486., 1.48562488e+03, 1.64238489e+03, 1.94239172e+03, 1.93178491e+03, 1.93599988e+03, 1936., 1.94150000e+03, 1936., 1936., 1925., 1.93054834e+03, 1.92896875e+03, 1.94150000e+03, 1.71100684e+03, 1.48599890e+03, 1483., 1486., 1486., 1.48407703e+03, 1480., 1480., 1.48242847e+03, 1480., 1.47997095e+03, 1.47935425e+03, 1.47982178e+03, 1.47981482e+03, 1473., 1473., 1473., 1.47819458e+03, 1.47820142e+03, 1.90209863e+03, 1.91523413e+03, 1.91499963e+03, 1.91016235e+03, 1.91016235e+03, 1.92431677e+03, 1.91889050e+03, 1.92841235e+03, 1.94440137e+03, 1.48024036e+03, 1480., 1480., 1.48122461e+03, 1486., 1486., 1486., 1.48037524e+03, 1480., 1.49412183e+03, 1.49422778e+03, 1.78326917e+03, 1.47825000e+03, 1.47821655e+03, 1.87763171e+03, 1.94255273e+03, 1.93599976e+03, 1936., 1.92069421e+03, 1.67757275e+03, 1.64911060e+03, 1.93436548e+03, 1.69686047e+03, 1936., 1.59438977e+03, 1.58943103e+03, 1.94562488e+03, 1.94699988e+03, 1.94699988e+03, 1.93882861e+03, 1.93882874e+03, 1.93398975e+03, 1.93591406e+03, 1.92780664e+03, 1.92507544e+03, 1.92834375e+03, 1.93393750e+03, 1936., 1.93462427e+03, 1936., 1.93096216e+03, 1.93445312e+03, 1936., 1936., 1.93439648e+03, 1.93439648e+03, 1.93050684e+03, 1.85270850e+03, 1947., 1.94562476e+03, 1.73234253e+03, 1480., 1480., 1480., 1.47333472e+03, 1.47301440e+03, 1.66760779e+03, 1.92639160e+03, 1.92716577e+03, 1.92501111e+03, 1.92501111e+03, 1.91626013e+03, 1915., 1915., 1915., 1915., 1915., 1915., 1925., 1.92747144e+03, 1.92884656e+03, 1.93573108e+03, 1936., 1.93582776e+03, 1.93582776e+03, 1.93433130e+03, 1925., 1.92848071e+03, 1.93580664e+03, 1.93673071e+03, 1.93673071e+03, 1.94679321e+03, 1947., 1.94681665e+03, 1947., 1.94697778e+03, 1.93755127e+03, 1.92655029e+03, 1.92517493e+03, 1.91516882e+03, 1.92181580e+03, 1.92517493e+03, 1.92250000e+03, 1.92500037e+03, 1925., 1.92574097e+03, 1.92500171e+03, 1.93261597e+03, 1.92728784e+03, 1.92728455e+03, 1936., 1.93737500e+03, 1.93819849e+03, 1936., 1.94698853e+03, 1947., 1.94694531e+03, 1947., 1.94694592e+03, 1936., 1.94691895e+03, 1.94694336e+03, 1.93987463e+03, 1.94699976e+03, 1.94699707e+03, 1.94699707e+03, 1.94132520e+03, 1.94700684e+03, 1947., 1947., 1947., 1947., 1947., 1.94691089e+03, 1.94691077e+03, 1.94691113e+03, 1.94686816e+03, 1.94622363e+03, 1.94425000e+03, 1.94012500e+03, 1.94017920e+03, 1.94699719e+03, 1.94837549e+03, 1947., 1.94664807e+03, 1.94596057e+03,
       1.48595312e+03, 1.49563916e+03, 1.49176343e+03, 1.49744226e+03, 1.49558374e+03, 1.59659424e+03, 1.75697559e+03, 1.50456946e+03, 1506., 1506., 1506., 1.50588293e+03, 1.49946533e+03, 1499., 1492., 1492., 1492., 1.48600146e+03, 1492., 1.49062744e+03, 1.48610107e+03, 1.49180664e+03, 1.82484143e+03, 1.84143042e+03, 1.82448486e+03, 1.94368262e+03, 1.94367334e+03, 1.78217236e+03, 1492., 1492., 1492., 1492., 1492., 1.49224609e+03, 1.49202734e+03, 1.51066016e+03, 1492., 1.96691101e+03, 1969., 1.96930176e+03, 1.96930151e+03, 1.95419800e+03, 1.94910547e+03, 1.94702148e+03, 1.95795947e+03, 1.60198560e+03, 1.60133142e+03, 1.49727905e+03, 1.49200171e+03, 1.49714062e+03, 1.49667480e+03, 1.49288721e+03, 1492., 1492., 1492., 1492., 1.94699988e+03, 1.94717725e+03, 1.94717188e+03, 1.93599988e+03, 1.93598096e+03, 1.48005273e+03, 1.48598059e+03, 1.48159888e+03, 1.48593555e+03, 1486., 1486., 1486., 1.48576709e+03, 1480., 1480., 1.93628516e+03, 1.79646265e+03, 1.49539343e+03, 1.50250244e+03, 1.59465820e+03, 1.93534082e+03, 1936., 1936., 1.93602148e+03, 1.93602148e+03, 1.94152148e+03, 1.94218750e+03, 1.93286243e+03, 1.93599988e+03, 1936., 1.93290271e+03, 1.93564478e+03, 1.93324731e+03, 1925., 1925., 1.93134717e+03, 1936., 1.93599866e+03, 1947., 1.94837500e+03, 1.93869446e+03, 1.94049915e+03, 1.95794604e+03, 1969., 1.95800073e+03, 1.95730176e+03, 1947., 1.93182874e+03, 1473., 1.53822583e+03, 1.47981995e+03, 1473., 1.75599341e+03, 1.92181531e+03, 1.92478467e+03, 1.92438306e+03, 1.91524182e+03, 1.91523462e+03, 1915., 1915., 1.92410376e+03, 1.94562500e+03, 1.94224634e+03, 1.93457556e+03, 1.94563013e+03, 1.94631250e+03, 1.94704333e+03, 1958., 1947., 1947., 1947., 1486., 1.48000342e+03, 1.93571997e+03, 1.93048999e+03, 1.92657910e+03, 1925., 1.93594727e+03, 1.93577393e+03, 1.94272498e+03, 1936., 1.93458044e+03, 1.93432410e+03, 1.93432397e+03, 1.93157275e+03, 1.93118787e+03, 1.93453894e+03, 1936., 1936., 1936., 1.94528113e+03, 1.94562488e+03, 1.94699988e+03, 1.94270166e+03, 1.93603491e+03, 1.93607788e+03, 1.93463574e+03, 1936., 1.92783350e+03, 1.92507544e+03, 1.93393713e+03, 1936., 1936., 1.93462500e+03, 1936., 1.93376562e+03, 1.93636523e+03, 1.93637598e+03, 1.93706055e+03, 1936., 1936., 1.93600037e+03, 1.94435449e+03, 1947., 1.94545288e+03, 1.93600134e+03, 1.93060620e+03, 1.93060645e+03, 1.59695776e+03, 1.93146582e+03, 1.92638074e+03, 1.92637524e+03, 1.92500024e+03, 1.92639148e+03, 1.92501099e+03, 1.92203149e+03, 1.91688696e+03, 1.91626001e+03, 1915., 1.91500977e+03, 1915., 1.91500122e+03, 1925., 1.92502148e+03, 1.92502148e+03, 1.92843774e+03, 1.92884790e+03, 1936., 1936., 1.93582812e+03, 1.93574219e+03, 1.92573047e+03, 1.93572070e+03, 1936., 1.93673071e+03, 1.93604321e+03, 1.94670654e+03, 1.94673071e+03, 1.93881470e+03, 1.94698853e+03, 1936., 1936., 1.92500269e+03, 1.92517493e+03, 1.91515906e+03, 1.92150330e+03, 1.92518567e+03, 1.92500037e+03, 1.92588086e+03, 1.93137012e+03, 1.93600134e+03, 1.93315332e+03, 1936., 1936., 1936., 1.93600049e+03, 1936., 1936., 1936., 1.94158594e+03, 1947., 1.94262012e+03, 1947., 1.94692444e+03, 1.94494434e+03, 1947., 1947., 1947., 1947., 1947., 1947., 1947., 1947., 1947., 1947., 1947., 1.94691113e+03, 1.94691406e+03, 1.94691089e+03, 1.94684631e+03, 1.94691077e+03, 1.94615881e+03, 1.94477771e+03, 1936., 1.93599182e+03, 1.93737500e+03, 1.94025452e+03, 1947., 1.94699182e+03, 1.94699182e+03, 1947.,
       1.95799902e+03, 1958., 1.49701306e+03, 1.94700269e+03, 1.94700269e+03, 1.93600269e+03, 1936., 1.93613599e+03, 1.93321655e+03, 1.51169128e+03, 1.92828174e+03, 1.50599976e+03, 1.50611011e+03, 1.49956592e+03, 1.49877319e+03, 1492., 1492., 1492., 1.49256885e+03, 1.95799756e+03, 1.95799829e+03, 1.94957544e+03, 1.95507629e+03, 1.95507629e+03, 1.94702136e+03, 1.94373291e+03, 1.94368994e+03, 1.93680371e+03, 1.94545166e+03, 1.94734619e+03, 1.94734619e+03, 1.94817896e+03, 1.94972681e+03, 1.95935181e+03, 1969., 1.96897705e+03, 1958., 1.95731250e+03, 1958., 1958., 1958., 1.95417651e+03, 1.94910547e+03, 1.94702148e+03, 1.95795947e+03, 1.95797583e+03, 1.94960742e+03, 1.95797583e+03, 1.95836523e+03, 1958., 1958., 1958., 1958., 1.94736133e+03, 1.95799988e+03, 1.94717188e+03, 1947., 1.94699988e+03, 1.94699951e+03, 1.93380542e+03, 1.93599988e+03, 1.93599548e+03, 1.93595251e+03, 1.92839136e+03, 1936., 1.93030786e+03, 1.92757275e+03, 1936., 1936., 1936., 1.92722620e+03, 1.93012183e+03, 1.92591089e+03, 1.93557031e+03, 1.93486401e+03, 1.93556091e+03, 1.93073730e+03, 1936., 1936., 1936., 1936., 1936., 1936., 1.93406299e+03, 1.93599927e+03, 1936., 1.93409485e+03, 1.93142566e+03, 1936., 1.93123047e+03, 1.93134387e+03, 1936., 1.94150000e+03, 1936., 1947., 1947., 1.94428186e+03, 1.93878210e+03, 1.93875073e+03, 1.95728003e+03, 1.95429370e+03, 1947., 1.94665625e+03, 1.93255127e+03, 1.93344922e+03, 1936., 1936., 1.92323438e+03, 1.91500732e+03, 1915., 1915., 1.91500244e+03, 1915., 1.91765625e+03, 1915., 1.91750000e+03, 1.92772168e+03, 1.94418359e+03, 1.93394214e+03, 1.93531177e+03, 1.93536084e+03, 1.94216528e+03, 1947., 1947., 1947., 1.94682788e+03, 1.94682812e+03, 1936., 1.93668750e+03, 1.93277380e+03, 1.92639648e+03, 1925., 1925., 1.93320276e+03, 1.93602148e+03, 1.94255273e+03, 1936., 1.93173914e+03, 1.93156726e+03, 1.93431726e+03, 1.93153503e+03, 1925., 1.92500037e+03, 1.93531238e+03, 1936., 1936., 1.93616565e+03, 1.93616431e+03, 1.93607520e+03, 1.93607812e+03, 1.93462451e+03, 1.93599988e+03, 1.92791382e+03, 1.93496875e+03, 1.92780396e+03, 1.92507544e+03, 1.92843140e+03, 1936., 1936., 1936., 1.93603235e+03, 1.93603235e+03, 1.93646191e+03, 1.94544897e+03, 1.93995288e+03, 1936., 1.93600037e+03, 1.93925732e+03, 1.94545020e+03, 1.94682788e+03, 1.93601855e+03, 1936., 1.92500732e+03, 1.92784363e+03, 1.93473218e+03, 1.93060437e+03, 1.93215405e+03, 1.92646338e+03, 1.92647974e+03, 1.93563477e+03, 1.92648242e+03, 1.92501318e+03, 1925., 1.91876465e+03, 1.91500989e+03, 1.91500989e+03, 1.91815796e+03, 1.91995581e+03, 1925., 1.92502148e+03, 1.92570923e+03, 1.92884595e+03, 1.92895007e+03, 1936., 1.93049963e+03, 1.92894470e+03, 1.93574182e+03, 1925., 1.92883398e+03, 1.93434497e+03, 1936., 1936., 1.94361230e+03, 1.94635986e+03, 1.93604321e+03, 1.94567224e+03, 1936., 1.93599927e+03, 1.92637500e+03, 1.92656067e+03, 1.91677551e+03, 1925., 1.92656738e+03, 1.92586377e+03, 1.93325000e+03, 1.93325000e+03, 1.93600171e+03, 1.93325000e+03, 1936., 1936., 1936., 1.93737549e+03, 1936., 1936., 1936., 1.93608606e+03, 1947., 1.94679492e+03, 1947., 1.94698926e+03, 1.94697852e+03, 1947., 1947., 1947., 1947., 1947., 1947., 1947., 1947., 1947., 1947., 1947., 1.94681348e+03, 1.94699951e+03, 1.94699951e+03, 1.94699951e+03, 1.94605127e+03, 1.94321875e+03, 1.94478381e+03, 1936., 1.93600024e+03, 1.94012524e+03, 1.94595862e+03, 1947., 1.94699182e+03, 1.94699463e+03, 1.94699451e+03 ]
