%YAML:1.0
table_background_depth_map: !!opencv-matrix
   rows: 32
   cols: 247
   dt: f
   data: [ 1681., 1681., 1.68137793e+03, 1.68102637e+03, 1.68985229e+03, 1681., 1.68999561e+03, 1690., 1681., 1.68513477e+03, 1681., 1681., 1681., 1681., 1681., 1681., 1.68400647e+03, 1.68428809e+03, 1690., 1690., 1690., 1692., 1690., 1690., 1690., 1.69013477e+03, 1.69013477e+03, 1.69788647e+03, 1.69250000e+03, 1.69799609e+03, 1.70456299e+03, 1.69627551e+03, 1.69402539e+03, 1.69025000e+03, 1.69000098e+03, 1.69634131e+03, 1698., 1690., 1690., 1.69012500e+03, 1690., 1.69066846e+03, 1690., 1690., 1690., 1690., 1690., 1690., 1690., 1690., 1690., 1690., 1.69000012e+03, 1690., 1690., 1690., 1690., 1690., 1690., 1690., 1690., 1690., 1690., 1690., 1690., 1690., 1690., 1690., 1690., 1690., 1690., 1.69371484e+03, 1.69152368e+03, 1.69759375e+03, 1698., 1.69799951e+03, 1.69213696e+03, 1.69273193e+03, 1.69223193e+03, 1.69013281e+03, 1690., 1690., 1690., 1690., 1690., 1690., 1.68999976e+03, 1690., 1690., 1690., 1690., 1690., 1690., 1690., 1690., 1690., 1690., 1690., 1690., 1690., 1690., 1690., 1690., 1690., 1690., 1690., 1690., 1690., 1690., 1690., 1690., 1690., 1690., 1690., 1690., 1690., 1690., 1690., 1.69673425e+03, 1.69610181e+03, 1.69619824e+03, 1690., 1.69644824e+03, 1.69644824e+03, 1690., 1690., 1690., 1690., 1690., 1690., 1.68128345e+03, 1690., 1.68985913e+03, 1.68870605e+03, 1.68420605e+03, 1.68985034e+03, 1.68998987e+03, 1.68999097e+03, 1690., 1690., 1690., 1.68998206e+03, 1.68999976e+03, 1690., 1690., 1690., 1.68998022e+03, 1690., 1690., 1690., 1690., 1690., 1690., 1690., 1690., 1690., 1690., 1690., 1.69050488e+03, 1.69052051e+03, 1.69052124e+03, 1.69050012e+03, 1.69050110e+03, 1.69050012e+03, 1.69579871e+03, 1.69050012e+03, 1690., 1690., 1690., 1690., 1690., 1690., 1690., 1690., 1690., 1690., 1690., 1690., 1690., 1690., 1690., 1690., 1.69798438e+03, 1698., 1.69798438e+03, 1698., 1.69803125e+03, 1.70066211e+03, 1.70599951e+03, 1698., 1.69775000e+03, 1.69500195e+03, 1.69574805e+03, 1695., 1690., 1690., 1.69650244e+03, 1.69656226e+03, 1690., 1697., 1698., 1698., 1698., 1698., 1.70599976e+03, 1.70599976e+03, 1.70600049e+03, 1.71057092e+03, 1.71078174e+03, 1706., 1706., 1706., 1.70860278e+03, 1.70825000e+03, 1.70825000e+03, 1.70595508e+03, 1.70007959e+03, 1700., 1.70599219e+03, 1698., 1698., 1.69800195e+03, 1698., 1706., 1.70438110e+03, 1706., 1706., 1706., 1706., 1706., 1.70656262e+03, 1706., 1.70923889e+03, 1706., 1706., 1706., 1706., 1.70881250e+03, 1706., 1.71004626e+03, 1.70997571e+03, 1.71468799e+03, 1715., 1.71471436e+03, 1.71447632e+03, 1706., 1706.,
       1681., 1681., 1.68362903e+03, 1.68100879e+03, 1.68535193e+03, 1681., 1690., 1690., 1.68128125e+03, 1.68549561e+03, 1681., 1681., 1681., 1681., 1681., 1681., 1681., 1681., 1690., 1690., 1690., 1690., 1690., 1690., 1690., 1.69313525e+03, 1.69313525e+03, 1.69794922e+03, 1.69794617e+03, 1.69800049e+03, 1.70483789e+03, 1.69000781e+03, 1.69402539e+03, 1690., 1690., 1690., 1.69799829e+03, 1690., 1.69000781e+03, 1690., 1690., 1.69012500e+03, 1.69050000e+03, 1690., 1690., 1690., 1690., 1690., 1690., 1690., 1690., 1690., 1690., 1690., 1690., 1690., 1690., 1.68550000e+03, 1.68929346e+03, 1690., 1690., 1690., 1690., 1690., 1690., 1690., 1690., 1690., 1690., 1690., 1690., 1698., 1.69171118e+03, 1698., 1698., 1698., 1.69799951e+03, 1698., 1698., 1.69203906e+03, 1.69216406e+03, 1690., 1690., 1690., 1690., 1690., 1.68265845e+03, 1.68549902e+03, 1.68473218e+03, 1690., 1690., 1690., 1690., 1690., 1690., 1690., 1690., 1690., 1690., 1690., 1690., 1690., 1690., 1690., 1690., 1690., 1690., 1690., 1690., 1690., 1690., 1690., 1690., 1690., 1690., 1690., 1690., 1690., 1.69673425e+03, 1.69675000e+03, 1.69019556e+03, 1690., 1.69418823e+03, 1.69231323e+03, 1690., 1690., 1690., 1690., 1690., 1690., 1.68128784e+03, 1690., 1690., 1690., 1690., 1690., 1690., 1690., 1690., 1690., 1690., 1690., 1690., 1690., 1690., 1690., 1690., 1690., 1690., 1690., 1690., 1690., 1690., 1690., 1690., 1690., 1690., 1690., 1.69050098e+03, 1.69052100e+03, 1.69583374e+03, 1.69051562e+03, 1.69476721e+03, 1.69051624e+03, 1.69586316e+03, 1.69000012e+03, 1690., 1690., 1690., 1690., 1690., 1690., 1690., 1690., 1690., 1690., 1690., 1690., 1690., 1690., 1690., 1690., 1.69598145e+03, 1698., 1.69119153e+03, 1.69348438e+03, 1698., 1.69815625e+03, 1.70474829e+03, 1698., 1.69775000e+03, 1.69413281e+03, 1.69771802e+03, 1.69513281e+03, 1690., 1690., 1690., 1.69052002e+03, 1690., 1.69070764e+03, 1697., 1697., 1697., 1.69674976e+03, 1.70202539e+03, 1.70208789e+03, 1706., 1706., 1706., 1706., 1706., 1706., 1.71368384e+03, 1.70860278e+03, 1.70890161e+03, 1706., 1.70599146e+03, 1698., 1.70549121e+03, 1698., 1698., 1698., 1698., 1.69900195e+03, 1698., 1698., 1698., 1.70195264e+03, 1.70169141e+03, 1706., 1.70599976e+03, 1.70496545e+03, 1706., 1706., 1706., 1706., 1.70600012e+03, 1.71370215e+03, 1.71342993e+03, 1715., 1.71469678e+03, 1.71498242e+03, 1715., 1.71499548e+03, 1.70828516e+03, 1706., 1706.,
       1681., 1.68109778e+03, 1.68475452e+03, 1.68100989e+03, 1.68549731e+03, 1.68325989e+03, 1690., 1690., 1681., 1.68550000e+03, 1690., 1.68939673e+03, 1.68135217e+03, 1681., 1.68128125e+03, 1.68648560e+03, 1.68647070e+03, 1681., 1.68971545e+03, 1690., 1690., 1690., 1690., 1690., 1690., 1690., 1.69000781e+03, 1.69782422e+03, 1.69650952e+03, 1.69800049e+03, 1.70457214e+03, 1.69202344e+03, 1.69002344e+03, 1690., 1690., 1.69400781e+03, 1.69799976e+03, 1.69012500e+03, 1690., 1.69050000e+03, 1690., 1.69050049e+03, 1690., 1690., 1690., 1690., 1690., 1690., 1690., 1690., 1690., 1690., 1690., 1690., 1690., 1.68336938e+03, 1681., 1681., 1681., 1.68465283e+03, 1.68943530e+03, 1690., 1690., 1690., 1690., 1690., 1690., 1.69100781e+03, 1690., 1690., 1.69100830e+03, 1698., 1.69762500e+03, 1.69762500e+03, 1698., 1698., 1.69687488e+03, 1698., 1.69687305e+03, 1.69201184e+03, 1.69000391e+03, 1690., 1690., 1690., 1690., 1690., 1.68477502e+03, 1.68535852e+03, 1690., 1690., 1690., 1690., 1690., 1690., 1690., 1690., 1690., 1690., 1690., 1.68831226e+03, 1690., 1690., 1690., 1690., 1690., 1690., 1690., 1690., 1690., 1690., 1690., 1690., 1690., 1690., 1690., 1.68996362e+03, 1690., 1690., 1690., 1.69400024e+03, 1690., 1690., 1690., 1690., 1690., 1690., 1690., 1.68940125e+03, 1690., 1.68940125e+03, 1.68128125e+03, 1690., 1690., 1.68999976e+03, 1690., 1690., 1690., 1.68974316e+03, 1690., 1690., 1690., 1.68429419e+03, 1.68549072e+03, 1690., 1690., 1690., 1690., 1690., 1690., 1690., 1690., 1690., 1690., 1.69475781e+03, 1690., 1690., 1690., 1690., 1690., 1690., 1690., 1690., 1690., 1690., 1.69054749e+03, 1690., 1690., 1690., 1690., 1690., 1690., 1690., 1690., 1690., 1690., 1690., 1690., 1690., 1690., 1690., 1690., 1690., 1.69598120e+03, 1.69798242e+03, 1.69000012e+03, 1.69747827e+03, 1.69798413e+03, 1.69799976e+03, 1698., 1.69773364e+03, 1.69618164e+03, 1690., 1.69774927e+03, 1.69412500e+03, 1690., 1690., 1690., 1690., 1690., 1690., 1690., 1690., 1690., 1.69404883e+03, 1698., 1698., 1.70217920e+03, 1706., 1706., 1706., 1706., 1.70860278e+03, 1.71484839e+03, 1.71484839e+03, 1.70918286e+03, 1706., 1706., 1698., 1.70599194e+03, 1698., 1698., 1698., 1698., 1.69912720e+03, 1698., 1.69963110e+03, 1698., 1.70598389e+03, 1.69969153e+03, 1706., 1706., 1.70596851e+03, 1706., 1706., 1706., 1706., 1.71078137e+03, 1.71359692e+03, 1.71349146e+03, 1715., 1.71497803e+03, 1715., 1.71497803e+03, 1.71455261e+03, 1.71278540e+03, 1706., 1706.,
       1681., 1681., 1.68136157e+03, 1681., 1.68473669e+03, 1681., 1690., 1690., 1.68361108e+03, 1.68433618e+03, 1.68964819e+03, 1.68932629e+03, 1.68999561e+03, 1.68128125e+03, 1690., 1690., 1690., 1.68409375e+03, 1690., 1690., 1690., 1690., 1.68971436e+03, 1690., 1.68785510e+03, 1690., 1690., 1690., 1690., 1.69688440e+03, 1698., 1.69799292e+03, 1.69599878e+03, 1.69593555e+03, 1698., 1698., 1698., 1.69013281e+03, 1.69012500e+03, 1690., 1690., 1690., 1690., 1690., 1.68550000e+03, 1690., 1690., 1690., 1690., 1690., 1690., 1690., 1690., 1690., 1690., 1690., 1.68942871e+03, 1.68775476e+03, 1690., 1690., 1690., 1690., 1690., 1690., 1.69100024e+03, 1690., 1.69100806e+03, 1.69100793e+03, 1691., 1690., 1.69001575e+03, 1.69158911e+03, 1690., 1.69257043e+03, 1.69400012e+03, 1.69685608e+03, 1.69200012e+03, 1.69685608e+03, 1.69632434e+03, 1690., 1690., 1690., 1690., 1690., 1690., 1690., 1.68365015e+03, 1690., 1.68999976e+03, 1690., 1690., 1690., 1690., 1690., 1690., 1690., 1690., 1.68999988e+03, 1.68999976e+03, 1.68348547e+03, 1690., 1690., 1690., 1690., 1690., 1690., 1690., 1690., 1690., 1690., 1690., 1.68943518e+03, 1690., 1690., 1690., 1.68996350e+03, 1690., 1690., 1690., 1690., 1690., 1690., 1690., 1690., 1690., 1690., 1.68999890e+03, 1681., 1.68943640e+03, 1.68128149e+03, 1.68128125e+03, 1.68999890e+03, 1.68972998e+03, 1.68860498e+03, 1690., 1690., 1.68992969e+03, 1.68974316e+03, 1690., 1690., 1690., 1.68550000e+03, 1690., 1690., 1690., 1690., 1690., 1690., 1690., 1.69150391e+03, 1690., 1.69588110e+03, 1690., 1.69590454e+03, 1690., 1690., 1690., 1690., 1690., 1690., 1690., 1690., 1690., 1690., 1.69054700e+03, 1690., 1690., 1690., 1690., 1690., 1690., 1690., 1690., 1690., 1690., 1690., 1690., 1690., 1690., 1690., 1690., 1690., 1.69584448e+03, 1.69598242e+03, 1.69000012e+03, 1.69597437e+03, 1698., 1698., 1698., 1.69223047e+03, 1.69724939e+03, 1690., 1.69421582e+03, 1690., 1690., 1690., 1690., 1690., 1690., 1690., 1690., 1690., 1690., 1690., 1698., 1698., 1.69800391e+03, 1704., 1706., 1706., 1706., 1.71368359e+03, 1.71484839e+03, 1.71499780e+03, 1.71485718e+03, 1706., 1706., 1.69858105e+03, 1706., 1698., 1698., 1698., 1698., 1.70316235e+03, 1698., 1.70313110e+03, 1.69812891e+03, 1.70597607e+03, 1.69919153e+03, 1706., 1.70599976e+03, 1.70446057e+03, 1706., 1706., 1706., 1706., 1.71275073e+03, 1.71275012e+03, 1706., 1.71334814e+03, 1.70825024e+03, 1.70828601e+03, 1706., 1706., 1706., 1706., 1706.,
       1681., 1681., 1.68137952e+03, 1681., 1.68532153e+03, 1.68363367e+03, 1690., 1690., 1.68362988e+03, 1.68433984e+03, 1.68964819e+03, 1.68592432e+03, 1.68827185e+03, 1.68128174e+03, 1690., 1690., 1690., 1.68353125e+03, 1690., 1690., 1.68361157e+03, 1.68924414e+03, 1.68924194e+03, 1690., 1.68999780e+03, 1690., 1690., 1690., 1690., 1.69000781e+03, 1690., 1690., 1.69000781e+03, 1.69450781e+03, 1.69568433e+03, 1698., 1.69768164e+03, 1690., 1690., 1690., 1690., 1690., 1690., 1690., 1690., 1690., 1690., 1690., 1690., 1690., 1690., 1.68999976e+03, 1690., 1690., 1690., 1.68493628e+03, 1.68109229e+03, 1681., 1.68992749e+03, 1690., 1690., 1.68978906e+03, 1690., 1690., 1.69100049e+03, 1691., 1.69500818e+03, 1691., 1690., 1690., 1690., 1.69008594e+03, 1.69006250e+03, 1690., 1690., 1.69682483e+03, 1.69200012e+03, 1.69685608e+03, 1.69232434e+03, 1690., 1690., 1690., 1690., 1690., 1690., 1690., 1.68999756e+03, 1690., 1690., 1690., 1690., 1690., 1690., 1690., 1690., 1690., 1690., 1690., 1690., 1.68999988e+03, 1690., 1690., 1690., 1690., 1690., 1690., 1690., 1690., 1690., 1.68943750e+03, 1690., 1.68943738e+03, 1690., 1690., 1690., 1.68999988e+03, 1690., 1690., 1690., 1690., 1690., 1690., 1690., 1690., 1690., 1690., 1.68931934e+03, 1681., 1.68268408e+03, 1.68264880e+03, 1.68128149e+03, 1690., 1.68992969e+03, 1.68978870e+03, 1690., 1690., 1.68989453e+03, 1.68381250e+03, 1690., 1690., 1690., 1690., 1690., 1690., 1690., 1690., 1690., 1690., 1690., 1.69799988e+03, 1.69796021e+03, 1698., 1.69237891e+03, 1.69799951e+03, 1690., 1690., 1690., 1690., 1690., 1690., 1690., 1690., 1690., 1690., 1690., 1690., 1690., 1690., 1690., 1690., 1690., 1690., 1690., 1690., 1690., 1690., 1690., 1690., 1690., 1690., 1690., 1690., 1.69450061e+03, 1.69497327e+03, 1690., 1.69497339e+03, 1.69799976e+03, 1698., 1.69294214e+03, 1.69219922e+03, 1.69424988e+03, 1.69012500e+03, 1.69521680e+03, 1690., 1690., 1690., 1.69001575e+03, 1690., 1690., 1690., 1690., 1690., 1690., 1690., 1698., 1698., 1.69813184e+03, 1706., 1706., 1706., 1706., 1.71372339e+03, 1715., 1715., 1.71499780e+03, 1706., 1.70600012e+03, 1706., 1706., 1698., 1.70292480e+03, 1.69812500e+03, 1706., 1.70399121e+03, 1698., 1698., 1.69812891e+03, 1.70394348e+03, 1698., 1.70444238e+03, 1698., 1.70446057e+03, 1706., 1706., 1706., 1.71050049e+03, 1.71313330e+03, 1.71275098e+03, 1.71275098e+03, 1.71275977e+03, 1.70825024e+03, 1706., 1706., 1706., 1706., 1706., 1.70550000e+03,
       1.68248682e+03, 1.68699121e+03, 1.68248669e+03, 1.68107935e+03, 1.68982202e+03, 1.68474170e+03, 1690., 1690., 1681., 1.68100049e+03, 1.68553735e+03, 1.68564282e+03, 1.68128125e+03, 1.68128174e+03, 1.68823657e+03, 1.68537097e+03, 1690., 1690., 1690., 1690., 1690., 1690., 1.68985938e+03, 1690., 1.68996484e+03, 1690., 1690., 1690., 1690., 1.69000781e+03, 1.69000049e+03, 1.69000781e+03, 1.69000049e+03, 1690., 1690., 1.69566797e+03, 1.69568384e+03, 1690., 1690., 1690., 1690., 1690., 1690., 1690., 1.68511792e+03, 1690., 1690., 1690., 1690., 1690., 1.68774976e+03, 1681., 1.68774976e+03, 1690., 1690., 1.68999780e+03, 1.68943530e+03, 1681., 1.68667065e+03, 1.68992969e+03, 1.68216992e+03, 1.68753906e+03, 1.68723474e+03, 1.68992969e+03, 1.69000049e+03, 1.69100049e+03, 1690., 1690., 1690., 1690., 1.69000049e+03, 1691., 1.69108655e+03, 1.69007043e+03, 1.69697729e+03, 1.69698291e+03, 1.69698145e+03, 1698., 1.69682092e+03, 1.69200403e+03, 1690., 1690., 1690., 1690., 1690., 1690., 1.68999646e+03, 1.68999976e+03, 1.68999976e+03, 1690., 1690., 1690., 1690., 1690., 1690., 1690., 1690., 1690., 1690., 1690., 1690., 1690., 1.68999988e+03, 1.68999927e+03, 1690., 1690., 1690., 1690., 1.68934949e+03, 1.68999988e+03, 1690., 1690., 1690., 1690., 1690., 1690., 1690., 1690., 1690., 1690., 1690., 1690., 1.68550024e+03, 1690., 1.68939893e+03, 1.68129883e+03, 1681., 1681., 1.68128564e+03, 1.68128564e+03, 1.68142651e+03, 1690., 1.68992944e+03, 1.68992969e+03, 1690., 1690., 1.68992969e+03, 1.68524634e+03, 1690., 1690., 1690., 1690., 1690., 1690., 1690., 1690., 1690., 1690., 1690., 1.69151587e+03, 1690., 1.69796814e+03, 1690., 1.69021484e+03, 1690., 1690., 1690., 1690., 1690., 1690., 1690., 1690., 1690., 1690., 1690., 1690., 1690., 1690., 1690., 1690., 1690., 1690., 1690., 1690., 1690., 1690., 1690., 1690., 1690., 1690., 1690., 1690., 1.69403174e+03, 1.69015698e+03, 1690., 1.69012561e+03, 1.69798999e+03, 1.69299976e+03, 1.69012891e+03, 1.69220032e+03, 1.69774976e+03, 1.69021582e+03, 1.69575000e+03, 1.69571606e+03, 1.69021497e+03, 1.69171509e+03, 1.69799976e+03, 1.69045325e+03, 1690., 1690., 1690., 1690., 1690., 1690., 1698., 1698., 1698., 1.70393726e+03, 1.70593726e+03, 1706., 1706., 1715., 1715., 1715., 1715., 1.70665186e+03, 1.70668701e+03, 1706., 1706., 1698., 1.70392944e+03, 1.69812500e+03, 1706., 1.69941211e+03, 1698., 1.69912891e+03, 1.69812891e+03, 1.69812891e+03, 1698., 1698., 1698., 1698., 1702., 1.70237524e+03, 1.70537500e+03, 1706., 1.71050073e+03, 1706., 1.70825024e+03, 1.70825024e+03, 1706., 1706., 1.70009399e+03, 1.70478979e+03, 1.70585352e+03, 1706., 1706.,
       1.68248682e+03, 1.68699133e+03, 1.68107922e+03, 1.68100012e+03, 1.68474194e+03, 1.68333093e+03, 1690., 1690., 1.68100049e+03, 1.68100049e+03, 1681., 1.68780493e+03, 1.68100049e+03, 1.68100049e+03, 1.68819995e+03, 1681., 1.68804175e+03, 1.68360168e+03, 1.68924097e+03, 1690., 1.68332910e+03, 1.68923669e+03, 1.68923718e+03, 1690., 1.68784741e+03, 1690., 1690., 1690., 1690., 1690., 1690., 1.69001233e+03, 1.69100439e+03, 1690., 1690., 1.69566797e+03, 1.69566797e+03, 1690., 1690., 1.68971765e+03, 1.68971875e+03, 1.68971545e+03, 1.68971875e+03, 1.68550000e+03, 1.68285120e+03, 1690., 1.68288635e+03, 1690., 1690., 1690., 1.68775000e+03, 1681., 1.68774976e+03, 1.68775000e+03, 1690., 1690., 1.68999780e+03, 1681., 1681., 1.68767749e+03, 1.68100879e+03, 1.68723584e+03, 1.68273474e+03, 1.68766211e+03, 1690., 1.69100049e+03, 1691., 1690., 1690., 1690., 1690., 1690., 1690., 1690., 1.69025000e+03, 1.69247388e+03, 1.69283667e+03, 1693., 1.69231262e+03, 1690., 1690., 1690., 1690., 1690., 1690., 1690., 1690., 1690., 1690., 1690., 1690., 1690., 1690., 1690., 1690., 1690., 1690., 1690., 1690., 1690., 1690., 1690., 1690., 1690., 1690., 1.68642175e+03, 1690., 1690., 1681., 1681., 1.68999976e+03, 1690., 1690., 1690., 1690., 1690., 1690., 1690., 1690., 1690., 1690., 1.68551904e+03, 1681., 1.68936499e+03, 1681., 1681., 1681., 1681., 1681., 1681., 1681., 1.68430127e+03, 1.68978906e+03, 1.68978882e+03, 1690., 1690., 1.68992969e+03, 1.68992969e+03, 1690., 1690., 1690., 1690., 1690., 1690., 1690., 1690., 1690., 1690., 1690., 1690., 1690., 1690., 1690., 1690., 1690., 1690., 1690., 1690., 1690., 1690., 1690., 1690., 1690., 1690., 1690., 1690., 1690., 1690., 1690., 1690., 1690., 1690., 1690., 1690., 1690., 1690., 1690., 1690., 1690., 1690., 1690., 1690., 1690., 1690., 1690., 1690., 1.69062549e+03, 1.69213037e+03, 1.69012500e+03, 1.69274976e+03, 1.69774976e+03, 1.69774780e+03, 1.69575000e+03, 1.69171606e+03, 1.69021497e+03, 1.69012500e+03, 1.69171509e+03, 1690., 1690., 1690., 1690., 1690., 1690., 1690., 1698., 1698., 1.70214746e+03, 1.70593750e+03, 1.70593750e+03, 1706., 1706., 1.71485938e+03, 1.71485938e+03, 1715., 1.71485278e+03, 1706., 1706., 1704., 1706., 1698., 1.70399951e+03, 1.69912891e+03, 1.70399170e+03, 1698., 1698., 1698., 1698., 1698., 1698., 1698., 1698., 1698., 1698., 1702., 1.70526746e+03, 1706., 1.70825012e+03, 1706., 1706., 1706., 1706., 1706., 1700., 1698., 1.70529077e+03, 1706., 1706.,
       1.68926172e+03, 1.68924365e+03, 1.68557935e+03, 1.68100891e+03, 1.68996484e+03, 1.68924414e+03, 1690., 1.68985938e+03, 1.68107104e+03, 1.68100049e+03, 1.68163062e+03, 1.68579285e+03, 1.68578540e+03, 1.68578540e+03, 1690., 1.68862866e+03, 1.68999988e+03, 1690., 1690., 1690., 1690., 1690., 1690., 1690., 1.68996484e+03, 1690., 1690., 1690., 1690., 1690., 1690., 1.69340295e+03, 1.69000781e+03, 1690., 1.69001587e+03, 1.69774902e+03, 1698., 1691., 1.69500012e+03, 1690., 1690., 1.68971875e+03, 1690., 1690., 1690., 1690., 1690., 1690., 1690., 1690., 1.68775000e+03, 1681., 1.68774976e+03, 1.68660254e+03, 1690., 1690., 1.68999988e+03, 1681., 1681., 1.68640735e+03, 1681., 1.68551160e+03, 1.68156531e+03, 1.68724023e+03, 1690., 1.69100049e+03, 1.69100024e+03, 1690., 1690., 1690., 1690., 1690., 1690., 1690., 1.69031262e+03, 1.69043811e+03, 1.69000012e+03, 1.69295764e+03, 1690., 1690., 1690., 1690., 1690., 1.68445874e+03, 1690., 1690., 1690., 1690., 1690., 1690., 1690., 1690., 1690., 1690., 1690., 1690., 1690., 1690., 1690., 1690., 1690., 1690., 1.68999011e+03, 1.68993726e+03, 1.68768665e+03, 1.68578125e+03, 1.68768738e+03, 1.68550000e+03, 1681., 1681., 1.68441675e+03, 1.68999976e+03, 1690., 1690., 1690., 1690., 1690., 1690., 1690., 1690., 1.68949609e+03, 1681., 1681., 1.68100110e+03, 1681., 1681., 1681., 1681., 1681., 1681., 1681., 1.68103516e+03, 1.68387354e+03, 1.68978882e+03, 1690., 1690., 1690., 1690., 1690., 1690., 1690., 1690., 1690., 1690., 1690., 1690., 1690., 1690., 1690., 1690., 1690., 1690., 1690., 1690., 1690., 1690., 1690., 1690., 1.68407520e+03, 1690., 1690., 1690., 1690., 1690., 1690., 1690., 1690., 1690., 1690., 1690., 1690., 1690., 1690., 1690., 1690., 1690., 1690., 1690., 1690., 1690., 1690., 1690., 1690., 1690., 1690., 1690., 1690., 1.69213037e+03, 1.69012500e+03, 1.69012500e+03, 1.69687305e+03, 1.69771680e+03, 1.69599805e+03, 1.69021094e+03, 1.69014844e+03, 1.69012500e+03, 1.69171509e+03, 1690., 1690., 1690., 1690., 1690., 1690., 1690., 1698., 1698., 1.69850000e+03, 1.70593750e+03, 1.70581250e+03, 1.70599609e+03, 1706., 1.71485938e+03, 1.71366394e+03, 1.71485205e+03, 1.71051904e+03, 1706., 1706., 1704., 1706., 1.69800391e+03, 1706., 1.70399170e+03, 1706., 1.69900391e+03, 1698., 1698., 1698., 1698., 1698., 1698., 1698., 1698., 1698., 1.70400024e+03, 1.70526746e+03, 1.70825000e+03, 1706., 1.70426746e+03, 1.70426746e+03, 1706., 1706., 1706., 1698., 1698., 1.70598230e+03, 1706., 1706.,
       1690., 1.68982422e+03, 1.68699194e+03, 1.68699084e+03, 1.68924194e+03, 1690., 1690., 1690., 1.68815076e+03, 1.68586108e+03, 1.68190796e+03, 1.68999988e+03, 1690., 1690., 1690., 1.68982410e+03, 1.68975146e+03, 1.68999988e+03, 1.68999988e+03, 1690., 1.68983716e+03, 1690., 1.68999963e+03, 1.68364954e+03, 1.68332983e+03, 1.68448010e+03, 1.68996484e+03, 1.68980664e+03, 1690., 1690., 1690., 1690., 1690., 1690., 1690., 1.69755908e+03, 1.69762158e+03, 1690., 1.69000012e+03, 1690., 1690., 1690., 1690., 1690., 1690., 1690., 1690., 1690., 1690., 1690., 1.68658984e+03, 1681., 1.68658972e+03, 1681., 1690., 1690., 1690., 1.68955273e+03, 1.68550928e+03, 1.68999658e+03, 1.68213428e+03, 1.68753906e+03, 1.68269043e+03, 1.68724023e+03, 1690., 1690., 1691., 1690., 1690., 1690., 1690., 1690., 1690., 1690., 1690., 1690., 1690., 1.69025012e+03, 1690., 1690., 1.68139136e+03, 1.68999976e+03, 1.68336890e+03, 1.68100012e+03, 1690., 1690., 1690., 1690., 1690., 1690., 1690., 1690., 1690., 1.68437451e+03, 1690., 1.68430457e+03, 1690., 1.68162207e+03, 1.68542859e+03, 1.68542859e+03, 1.68999890e+03, 1690., 1690., 1690., 1690., 1690., 1690., 1690., 1690., 1.68527100e+03, 1690., 1690., 1690., 1690., 1690., 1690., 1690., 1690., 1690., 1.68999988e+03, 1.68949609e+03, 1681., 1681., 1.68100110e+03, 1681., 1681., 1681., 1681., 1681., 1681., 1681., 1681., 1681., 1.68161646e+03, 1690., 1690., 1690., 1690., 1690., 1690., 1690., 1690., 1690., 1690., 1690., 1690., 1690., 1690., 1690., 1690., 1690., 1690., 1690., 1690., 1690., 1690., 1690., 1690., 1.68339502e+03, 1.68520068e+03, 1.68550000e+03, 1690., 1690., 1690., 1690., 1690., 1690., 1690., 1690., 1690., 1690., 1690., 1690., 1690., 1690., 1690., 1690., 1690., 1690., 1690., 1690., 1690., 1690., 1690., 1690., 1690., 1690., 1.69012598e+03, 1690., 1.69012500e+03, 1.69284082e+03, 1.69384180e+03, 1.69599805e+03, 1.69021497e+03, 1.69021497e+03, 1.69012500e+03, 1.69119922e+03, 1690., 1690., 1690., 1690., 1690., 1690., 1690., 1698., 1698., 1.69850000e+03, 1.70593750e+03, 1.70580847e+03, 1.70195483e+03, 1.70627759e+03, 1.71499976e+03, 1715., 1715., 1.71485864e+03, 1.71090552e+03, 1.70607031e+03, 1706., 1.70587476e+03, 1.69800391e+03, 1.70587427e+03, 1.70349170e+03, 1.70549170e+03, 1698., 1698., 1698., 1698., 1698., 1698., 1698., 1698., 1.69850195e+03, 1.70050000e+03, 1.70479907e+03, 1.70530847e+03, 1706., 1706., 1.70427380e+03, 1.70426599e+03, 1706., 1.70496582e+03, 1.70025952e+03, 1698., 1698., 1.70549780e+03, 1706., 1.70628296e+03,
       1.68996484e+03, 1.68699304e+03, 1.68670508e+03, 1.68670947e+03, 1.68699084e+03, 1.68943530e+03, 1690., 1690., 1.68786975e+03, 1.68783008e+03, 1.68807605e+03, 1690., 1690., 1690., 1690., 1690., 1690., 1690., 1690., 1690., 1690., 1690., 1.68943726e+03, 1.68381226e+03, 1.68325952e+03, 1.68325952e+03, 1.68325952e+03, 1.68382153e+03, 1.68548218e+03, 1690., 1690., 1690., 1690., 1690., 1690., 1690., 1.69102368e+03, 1690., 1690., 1690., 1690., 1.68999951e+03, 1690., 1690., 1690., 1690., 1690., 1690., 1690., 1690., 1690., 1.68658984e+03, 1690., 1.68771484e+03, 1690., 1690., 1690., 1690., 1.68775000e+03, 1690., 1.68749268e+03, 1690., 1.68269922e+03, 1690., 1690., 1690., 1691., 1690., 1690., 1690., 1690., 1690., 1690., 1690., 1690., 1690., 1690., 1690., 1.68999756e+03, 1.68999976e+03, 1681., 1.68107495e+03, 1681., 1681., 1.68466357e+03, 1690., 1690., 1690., 1690., 1690., 1690., 1690., 1690., 1.68437402e+03, 1690., 1681., 1.68409375e+03, 1681., 1.68992969e+03, 1690., 1690., 1690., 1690., 1690., 1690., 1690., 1690., 1690., 1690., 1690., 1690., 1690., 1.68999072e+03, 1690., 1690., 1.68999988e+03, 1690., 1.68999109e+03, 1.68381689e+03, 1681., 1681., 1681., 1681., 1681., 1681., 1681., 1681., 1681., 1681., 1681., 1681., 1681., 1681., 1681., 1.68866382e+03, 1690., 1.68611914e+03, 1.68978857e+03, 1.68992969e+03, 1.68992944e+03, 1690., 1690., 1690., 1690., 1690., 1690., 1690., 1690., 1690., 1690., 1690., 1690., 1690., 1690., 1690., 1690., 1690., 1690., 1.68400305e+03, 1.68550000e+03, 1690., 1690., 1690., 1690., 1690., 1690., 1690., 1690., 1690., 1690., 1690., 1690., 1690., 1690., 1690., 1690., 1690., 1690., 1690., 1690., 1690., 1690., 1690., 1690., 1690., 1690., 1690., 1.69012500e+03, 1690., 1.69012500e+03, 1.69019238e+03, 1.69371680e+03, 1698., 1.69174805e+03, 1.69174683e+03, 1.69012500e+03, 1.69374780e+03, 1690., 1690., 1690., 1690., 1690., 1690., 1690., 1698., 1698., 1.69850000e+03, 1.69850195e+03, 1.69850195e+03, 1.70592517e+03, 1706., 1.71138257e+03, 1706., 1706., 1706., 1706., 1706., 1706., 1.70335059e+03, 1.69800391e+03, 1.70599951e+03, 1.70599170e+03, 1.70549170e+03, 1.70330420e+03, 1.70599219e+03, 1.70392969e+03, 1706., 1.70592908e+03, 1.70053711e+03, 1.70599219e+03, 1.70567957e+03, 1.70593347e+03, 1.70593359e+03, 1.70599609e+03, 1.70580859e+03, 1706., 1706., 1.70477478e+03, 1.70076697e+03, 1706., 1.70077087e+03, 1.70075903e+03, 1698., 1698., 1.70199805e+03, 1706., 1.70983838e+03,
       1.68996484e+03, 1.68701062e+03, 1.68701172e+03, 1.68700842e+03, 1.68586548e+03, 1.68924084e+03, 1.68924084e+03, 1.68929358e+03, 1.68786536e+03, 1.68814771e+03, 1.68929016e+03, 1690., 1690., 1690., 1690., 1690., 1.68985925e+03, 1690., 1690., 1690., 1.68998242e+03, 1690., 1690., 1690., 1.68940015e+03, 1.68382556e+03, 1690., 1.68149390e+03, 1.68757605e+03, 1.68704468e+03, 1690., 1690., 1690., 1690., 1690., 1690., 1695., 1690., 1690., 1690., 1690., 1690., 1690., 1690., 1.68999951e+03, 1690., 1690., 1690., 1.68999670e+03, 1690., 1690., 1690., 1690., 1690., 1690., 1690., 1690., 1690., 1690., 1690., 1690., 1690., 1690., 1.68966492e+03, 1690., 1690., 1690., 1690., 1690., 1690., 1690., 1690., 1690., 1690., 1690., 1690., 1690., 1690., 1.68242554e+03, 1.68998877e+03, 1681., 1.68212524e+03, 1681., 1.68100012e+03, 1.68485144e+03, 1690., 1690., 1690., 1690., 1690., 1690., 1690., 1690., 1690., 1690., 1.68887500e+03, 1690., 1.68402344e+03, 1690., 1690., 1690., 1690., 1690., 1690., 1690., 1690., 1690., 1690., 1.68998242e+03, 1.68188281e+03, 1.68525806e+03, 1681., 1.68156470e+03, 1.68415479e+03, 1.68415430e+03, 1.68415454e+03, 1.68984985e+03, 1.68999976e+03, 1.68381689e+03, 1.68992908e+03, 1.68268872e+03, 1681., 1681., 1.68100110e+03, 1681., 1681., 1681., 1681., 1681., 1681., 1681., 1681., 1681., 1.68100439e+03, 1.68162354e+03, 1.68985938e+03, 1.68160156e+03, 1690., 1690., 1690., 1690., 1690., 1690., 1690., 1690., 1690., 1690., 1690., 1690., 1690., 1690., 1690., 1690., 1690., 1.68999951e+03, 1690., 1690., 1690., 1690., 1690., 1690., 1690., 1690., 1690., 1690., 1690., 1690., 1690., 1690., 1690., 1690., 1690., 1690., 1690., 1690., 1690., 1690., 1690., 1690., 1690., 1690., 1690., 1690., 1690., 1690., 1690., 1690., 1.69213037e+03, 1690., 1.69012500e+03, 1.69018848e+03, 1.69396680e+03, 1696., 1.69199731e+03, 1.69146497e+03, 1.69012500e+03, 1.69399780e+03, 1.69112500e+03, 1690., 1690., 1690., 1690., 1690., 1690., 1698., 1.69850000e+03, 1.70275220e+03, 1.70592944e+03, 1.70275220e+03, 1.70195581e+03, 1.70600024e+03, 1.71078162e+03, 1706., 1706., 1706., 1706., 1706., 1.70599951e+03, 1698., 1.69800391e+03, 1706., 1706., 1706., 1706., 1706., 1.70377319e+03, 1706., 1.70599219e+03, 1.70592969e+03, 1.70599219e+03, 1.70067932e+03, 1.70079980e+03, 1.70580847e+03, 1.70599609e+03, 1.70580859e+03, 1.70599609e+03, 1.70480798e+03, 1.70227344e+03, 1698., 1.70583740e+03, 1.70075000e+03, 1.69850000e+03, 1698., 1698., 1.69800098e+03, 1.70188086e+03, 1706.,
       1690., 1.68701050e+03, 1.68926062e+03, 1.68925842e+03, 1.68925842e+03, 1.68943750e+03, 1.68929578e+03, 1.68929688e+03, 1.68557983e+03, 1.68786646e+03, 1.68786572e+03, 1690., 1690., 1690., 1690., 1690., 1690., 1690., 1690., 1690., 1690., 1690., 1690., 1690., 1.68882227e+03, 1.68973633e+03, 1.68867554e+03, 1.68128149e+03, 1.68698743e+03, 1.68929468e+03, 1690., 1690., 1690., 1690., 1690., 1690., 1690., 1690., 1690., 1690., 1690., 1690., 1690., 1690., 1690., 1690., 1690., 1690., 1690., 1690., 1690., 1690., 1690., 1690., 1690., 1690., 1690., 1690., 1690., 1690., 1690., 1690., 1.68270142e+03, 1681., 1.68502197e+03, 1.68999988e+03, 1690., 1690., 1690., 1690., 1690., 1690., 1690., 1690., 1690., 1.68943750e+03, 1690., 1690., 1.68548877e+03, 1.68548877e+03, 1681., 1.68251367e+03, 1681., 1.68212634e+03, 1690., 1690., 1690., 1690., 1690., 1690., 1690., 1690., 1690., 1690., 1690., 1690., 1690., 1.68887500e+03, 1690., 1690., 1690., 1690., 1690., 1690., 1690., 1690., 1690., 1690., 1.68998242e+03, 1681., 1.68300720e+03, 1681., 1.68184595e+03, 1.68413672e+03, 1.68156470e+03, 1.68413586e+03, 1.68411938e+03, 1690., 1.68430469e+03, 1690., 1.68957812e+03, 1681., 1681., 1.68100110e+03, 1681., 1681., 1681., 1.68075000e+03, 1681., 1681., 1681., 1681., 1681., 1681., 1.68106323e+03, 1.68423438e+03, 1.68163025e+03, 1.68985913e+03, 1690., 1690., 1690., 1690., 1690., 1690., 1690., 1690., 1690., 1690., 1.68992969e+03, 1690., 1690., 1690., 1690., 1690., 1.68999512e+03, 1690., 1690., 1690., 1.68385449e+03, 1.68499683e+03, 1.68999951e+03, 1690., 1690., 1690., 1.68469495e+03, 1690., 1690., 1690., 1690., 1690., 1690., 1690., 1.69000098e+03, 1690., 1690., 1690., 1690., 1690., 1690., 1690., 1690., 1690., 1690., 1690., 1.68910303e+03, 1.68996460e+03, 1690., 1690., 1690., 1690., 1.69012500e+03, 1.69796680e+03, 1.69799805e+03, 1.69199780e+03, 1.69199780e+03, 1.69112891e+03, 1698., 1.69799976e+03, 1.69100391e+03, 1690., 1.69263342e+03, 1.69689917e+03, 1690., 1694., 1698., 1.70376782e+03, 1.70577612e+03, 1.70375610e+03, 1.70275024e+03, 1.70592505e+03, 1706., 1706., 1706., 1702., 1.70400879e+03, 1706., 1706., 1.70587427e+03, 1698., 1.69800391e+03, 1706., 1706., 1706., 1706., 1706., 1.70586719e+03, 1706., 1706., 1.70599219e+03, 1706., 1.70174207e+03, 1.70079980e+03, 1.70580847e+03, 1.70599609e+03, 1.70580859e+03, 1.70599609e+03, 1.70580859e+03, 1.70580847e+03, 1.70580798e+03, 1706., 1706., 1.70177881e+03, 1698., 1698., 1.70175903e+03, 1706., 1706.,
       1690., 1.68943750e+03, 1.68940015e+03, 1.68943750e+03, 1.68925830e+03, 1.68929358e+03, 1.68901233e+03, 1.68557983e+03, 1681., 1681., 1681., 1.68814917e+03, 1.68999988e+03, 1690., 1690., 1.68999988e+03, 1690., 1690., 1690., 1690., 1690., 1690., 1690., 1690., 1.68933203e+03, 1.68242139e+03, 1.68100012e+03, 1681., 1.68212573e+03, 1.68212512e+03, 1690., 1690., 1690., 1690., 1690., 1690., 1.69114307e+03, 1690., 1690., 1690., 1690., 1690., 1690., 1690., 1690., 1690., 1690., 1690., 1690., 1690., 1690., 1690., 1690., 1690., 1690., 1690., 1690., 1690., 1690., 1690., 1690., 1690., 1.68493823e+03, 1681., 1681., 1681., 1690., 1.68969885e+03, 1.68519775e+03, 1690., 1690., 1.68999951e+03, 1690., 1690., 1690., 1.68943750e+03, 1690., 1690., 1.68548877e+03, 1.68999780e+03, 1681., 1.68213123e+03, 1681., 1681., 1.68465759e+03, 1690., 1.68943750e+03, 1690., 1690., 1690., 1690., 1690., 1690., 1690., 1690., 1.68627344e+03, 1.68859375e+03, 1.68100732e+03, 1.68401428e+03, 1.68887500e+03, 1.68887500e+03, 1690., 1690., 1690., 1690., 1690., 1690., 1690., 1.68975708e+03, 1681., 1681., 1681., 1681., 1681., 1681., 1.68156250e+03, 1.68156250e+03, 1.68424988e+03, 1.68426880e+03, 1690., 1.68971875e+03, 1681., 1681., 1.68325146e+03, 1681., 1681., 1681., 1681., 1681., 1681., 1681., 1681., 1681., 1681., 1681., 1681., 1681., 1.68103564e+03, 1.68732776e+03, 1.68553516e+03, 1690., 1.68999976e+03, 1690., 1690., 1690., 1690., 1690., 1.68991211e+03, 1.68103955e+03, 1.68100439e+03, 1.68118347e+03, 1690., 1690., 1690., 1.68999060e+03, 1690., 1690., 1690., 1690., 1690., 1690., 1690., 1690., 1690., 1.68999121e+03, 1690., 1690., 1690., 1690., 1690., 1690., 1690., 1690., 1690., 1690., 1690., 1690., 1690., 1690., 1690., 1690., 1690., 1690., 1.68906824e+03, 1.68114062e+03, 1.68114124e+03, 1690., 1690., 1690., 1690., 1.69012500e+03, 1.69796655e+03, 1.69799805e+03, 1.69166919e+03, 1.69112500e+03, 1690., 1.69163684e+03, 1.69363733e+03, 1690., 1690., 1.69288342e+03, 1.69688770e+03, 1690., 1690., 1698., 1699., 1.70375000e+03, 1.70375220e+03, 1698., 1.70592554e+03, 1706., 1706., 1706., 1700., 1.70403247e+03, 1706., 1.70586621e+03, 1698., 1698., 1698., 1698., 1.70306201e+03, 1.69930420e+03, 1.69800403e+03, 1.70330420e+03, 1.69981250e+03, 1706., 1706., 1706., 1706., 1706., 1.70080847e+03, 1.70580847e+03, 1706., 1.70580847e+03, 1.70599609e+03, 1.69880664e+03, 1.70280688e+03, 1.70580798e+03, 1706., 1.70596875e+03, 1.70596875e+03, 1698., 1698., 1.70596875e+03, 1706., 1.70797021e+03,
       1.68943750e+03, 1.68830640e+03, 1690., 1.68943750e+03, 1.68943640e+03, 1.68943689e+03, 1.68359644e+03, 1.68100879e+03, 1681., 1681., 1681., 1.68871167e+03, 1690., 1.68887048e+03, 1690., 1.68999548e+03, 1690., 1690., 1690., 1690., 1690., 1690., 1690., 1690., 1.68255750e+03, 1.68129126e+03, 1.68100012e+03, 1681., 1.68240637e+03, 1.68100012e+03, 1.68929443e+03, 1690., 1690., 1690., 1690., 1.69025391e+03, 1.69400012e+03, 1690., 1694., 1690., 1690., 1690., 1690., 1690., 1690., 1690., 1690., 1690., 1690., 1690., 1690., 1690., 1690., 1690., 1690., 1690., 1690., 1690., 1690., 1690., 1.68999121e+03, 1.68854834e+03, 1.68508325e+03, 1681., 1681., 1681., 1.68999988e+03, 1690., 1690., 1690., 1690., 1.68999951e+03, 1690., 1690., 1.68943750e+03, 1.68493530e+03, 1690., 1.68267627e+03, 1.68221899e+03, 1.68250024e+03, 1681., 1.68212622e+03, 1681., 1681., 1.68212610e+03, 1690., 1690., 1690., 1690., 1690., 1690., 1690., 1690., 1690., 1690., 1.68100220e+03, 1.68746875e+03, 1681., 1.68971875e+03, 1690., 1.68887061e+03, 1690., 1690., 1690., 1690., 1690., 1690., 1690., 1.68859680e+03, 1681., 1681., 1681., 1681., 1681., 1681., 1681., 1681., 1.68410815e+03, 1.68412805e+03, 1690., 1690., 1681., 1681., 1.68325110e+03, 1.68100110e+03, 1681., 1681., 1.67507471e+03, 1681., 1681., 1681., 1681., 1681., 1681., 1681., 1681., 1681., 1681., 1681., 1.68667957e+03, 1690., 1690., 1690., 1690., 1690., 1690., 1690., 1690., 1.68273047e+03, 1.68962109e+03, 1.68970996e+03, 1690., 1690., 1690., 1.68999072e+03, 1690., 1690., 1690., 1.68999939e+03, 1.68997192e+03, 1690., 1.68999951e+03, 1690., 1690., 1.68919556e+03, 1690., 1.68997278e+03, 1690., 1690., 1690., 1690., 1690., 1690., 1690., 1690., 1690., 1690., 1690., 1690., 1690., 1690., 1690., 1690., 1.68100684e+03, 1.68114062e+03, 1.68989453e+03, 1690., 1690., 1690., 1690., 1.69012500e+03, 1.69796680e+03, 1698., 1.69112512e+03, 1690., 1690., 1690., 1.69013672e+03, 1690., 1690., 1698., 1698., 1698., 1.69799988e+03, 1.70399585e+03, 1706., 1706., 1.70375220e+03, 1698., 1.70578442e+03, 1706., 1706., 1.70592578e+03, 1698., 1698., 1.70403223e+03, 1.69803223e+03, 1698., 1698., 1698., 1698., 1698., 1.69800391e+03, 1698., 1698., 1.69801953e+03, 1706., 1706., 1706., 1706., 1706., 1.70054883e+03, 1706., 1706., 1.70480847e+03, 1706., 1.70480737e+03, 1.70480688e+03, 1.70380688e+03, 1706., 1.70596826e+03, 1706., 1698., 1.69800098e+03, 1.70188867e+03, 1706., 1.70741211e+03,
       1.68929077e+03, 1.68141528e+03, 1690., 1690., 1.68943311e+03, 1690., 1.68985938e+03, 1.68129016e+03, 1.68188770e+03, 1681., 1681., 1.68196167e+03, 1690., 1.68999487e+03, 1690., 1690., 1690., 1690., 1690., 1.69000903e+03, 1.69025781e+03, 1690., 1690., 1690., 1.68312463e+03, 1.68831274e+03, 1681., 1681., 1.68240637e+03, 1681., 1.68136047e+03, 1.68997913e+03, 1690., 1690., 1690., 1690., 1.69007031e+03, 1690., 1690., 1690., 1690., 1690., 1690., 1690., 1690., 1690., 1690., 1.68998022e+03, 1.68518872e+03, 1.68998022e+03, 1.68540100e+03, 1.68536584e+03, 1690., 1690., 1690., 1690., 1690., 1690., 1690., 1690., 1.68162256e+03, 1.68156250e+03, 1.68156311e+03, 1681., 1681., 1681., 1.68971863e+03, 1.68971863e+03, 1.68547900e+03, 1690., 1690., 1690., 1690., 1690., 1.68943750e+03, 1.68114062e+03, 1.68690405e+03, 1.68107031e+03, 1.68220142e+03, 1.68943530e+03, 1681., 1.68212622e+03, 1.68212622e+03, 1681., 1.68212512e+03, 1.68437842e+03, 1.68901587e+03, 1690., 1.68943750e+03, 1690., 1.68663171e+03, 1.68943750e+03, 1.68913855e+03, 1.68100220e+03, 1.68553320e+03, 1681., 1681., 1681., 1.68100659e+03, 1.68848816e+03, 1690., 1690., 1690., 1690., 1690., 1690., 1690., 1690., 1.68384851e+03, 1681., 1681., 1681., 1681., 1681., 1681., 1681., 1681., 1.68410828e+03, 1.68128687e+03, 1690., 1690., 1681., 1681., 1.68325000e+03, 1681., 1681., 1681., 1.67607275e+03, 1681., 1681., 1681., 1681., 1681., 1681., 1681., 1681., 1681., 1681., 1681., 1681., 1690., 1690., 1690., 1690., 1690., 1690., 1690., 1690., 1.68156689e+03, 1.68273047e+03, 1.68970996e+03, 1.68971875e+03, 1690., 1690., 1690., 1690., 1690., 1690., 1690., 1690., 1690., 1.68943750e+03, 1.68943750e+03, 1690., 1.68806885e+03, 1.68999097e+03, 1.68578467e+03, 1690., 1690., 1690., 1690., 1690., 1690., 1690., 1690., 1690., 1690., 1690., 1690., 1690., 1690., 1.68775000e+03, 1690., 1.68763489e+03, 1.68996484e+03, 1.68989453e+03, 1690., 1690., 1690., 1690., 1690., 1.69796680e+03, 1.69174805e+03, 1.69112622e+03, 1690., 1690., 1.69113672e+03, 1.69391968e+03, 1.69000830e+03, 1690., 1698., 1698., 1.69492236e+03, 1690., 1698., 1706., 1.70599585e+03, 1.70378320e+03, 1699., 1.70598828e+03, 1706., 1706., 1.70598438e+03, 1698., 1698., 1.70000098e+03, 1698., 1698., 1698., 1698., 1698., 1698., 1698., 1698., 1698., 1.69800012e+03, 1706., 1706., 1706., 1706., 1.70192944e+03, 1.70001758e+03, 1.70599609e+03, 1706., 1.70480847e+03, 1.70587109e+03, 1.70480676e+03, 1.70480701e+03, 1.70480786e+03, 1706., 1.70596875e+03, 1706., 1.69975098e+03, 1.70575916e+03, 1706., 1.70712610e+03, 1715.,
       1.68133398e+03, 1.68929187e+03, 1690., 1690., 1.68999561e+03, 1690., 1.68535938e+03, 1.68100879e+03, 1681., 1681., 1681., 1681., 1.68422925e+03, 1.68110583e+03, 1690., 1690., 1690., 1692., 1690., 1690., 1690., 1690., 1690., 1.68943750e+03, 1.68156689e+03, 1.68606250e+03, 1.68156250e+03, 1681., 1.68697864e+03, 1.68247668e+03, 1.68698608e+03, 1.68648047e+03, 1690., 1690., 1690., 1.69000293e+03, 1690., 1690., 1690., 1690., 1690., 1690., 1690., 1690., 1690., 1690., 1690., 1.68346533e+03, 1681., 1681., 1.68325000e+03, 1681., 1690., 1690., 1.68493872e+03, 1690., 1690., 1690., 1690., 1690., 1681., 1681., 1681., 1681., 1681., 1.68100439e+03, 1.68100500e+03, 1.68459973e+03, 1.68122424e+03, 1.68943750e+03, 1690., 1690., 1690., 1.68718481e+03, 1.68683643e+03, 1681., 1.68915356e+03, 1.68943530e+03, 1.68999780e+03, 1.68999780e+03, 1.68662610e+03, 1.68941772e+03, 1.68666150e+03, 1.68212500e+03, 1681., 1681., 1681., 1.68936169e+03, 1.68212512e+03, 1.68662732e+03, 1681., 1681., 1681., 1681., 1681., 1681., 1681., 1681., 1681., 1.68100439e+03, 1.68912097e+03, 1690., 1.68996472e+03, 1690., 1690., 1690., 1690., 1690., 1.68100024e+03, 1681., 1681., 1681., 1681., 1681., 1681., 1681., 1681., 1690., 1690., 1690., 1690., 1690., 1690., 1690., 1.68943750e+03, 1681., 1681., 1.68033850e+03, 1681., 1681., 1681., 1.68084326e+03, 1681., 1681., 1681., 1681., 1681., 1681., 1681., 1.68101758e+03, 1690., 1690., 1690., 1690., 1690., 1690., 1690., 1690., 1.68272888e+03, 1.68736877e+03, 1.68970996e+03, 1690., 1690., 1690., 1690., 1690., 1690., 1690., 1690., 1.68985938e+03, 1690., 1690., 1.68943750e+03, 1690., 1.68927795e+03, 1690., 1.68943726e+03, 1690., 1690., 1690., 1690., 1690., 1690., 1690., 1690., 1690., 1690., 1690., 1690., 1690., 1.68756543e+03, 1.68156262e+03, 1.68767041e+03, 1.68606494e+03, 1.68735449e+03, 1.68764453e+03, 1690., 1690., 1690., 1690., 1.69012512e+03, 1698., 1698., 1698., 1698., 1.69364014e+03, 1.69000781e+03, 1.69001270e+03, 1690., 1690., 1.69292139e+03, 1.69292041e+03, 1.69040625e+03, 1.69440820e+03, 1.70379980e+03, 1706., 1706., 1.70390625e+03, 1.70362695e+03, 1706., 1706., 1706., 1706., 1698., 1698., 1.70415967e+03, 1698., 1698., 1698., 1698., 1698., 1698., 1698., 1698., 1698., 1698., 1.70050610e+03, 1702., 1.70512476e+03, 1.70587500e+03, 1.70110742e+03, 1.69800195e+03, 1.70537500e+03, 1.70531152e+03, 1.69804102e+03, 1.70230676e+03, 1.69800195e+03, 1.69826758e+03, 1.70277539e+03, 1706., 1.70594470e+03, 1706., 1.70596826e+03, 1.70596826e+03, 1706., 1.70796985e+03, 1.70965955e+03,
       1.68366528e+03, 1.68943311e+03, 1690., 1690., 1690., 1690., 1690., 1.68100879e+03, 1681., 1681., 1681., 1681., 1.68191553e+03, 1681., 1.68999951e+03, 1690., 1690., 1.69302563e+03, 1.69200024e+03, 1.69000012e+03, 1690., 1690., 1690., 1.68943750e+03, 1.68156689e+03, 1.68831250e+03, 1.68606250e+03, 1.68128125e+03, 1.68704028e+03, 1.68703943e+03, 1.68985278e+03, 1.68873096e+03, 1.68886401e+03, 1690., 1690., 1690., 1690., 1.68942871e+03, 1.68457715e+03, 1690., 1690., 1690., 1.68824866e+03, 1681., 1.68118103e+03, 1.68941772e+03, 1690., 1.68339551e+03, 1681., 1.68423438e+03, 1.68508423e+03, 1.68451672e+03, 1690., 1690., 1681., 1690., 1690., 1.68535938e+03, 1.68549536e+03, 1.68535913e+03, 1.68158008e+03, 1681., 1.68158289e+03, 1681., 1681., 1.68100439e+03, 1.68966235e+03, 1.68910010e+03, 1.68122424e+03, 1690., 1.68943750e+03, 1.68943750e+03, 1690., 1.68114087e+03, 1681., 1681., 1.68915625e+03, 1.68894702e+03, 1690., 1690., 1.68937354e+03, 1690., 1.68936694e+03, 1.68212500e+03, 1681., 1681., 1681., 1.68212512e+03, 1681., 1681., 1681., 1681., 1681., 1681., 1681., 1681., 1681., 1681., 1.68100439e+03, 1690., 1690., 1690., 1690., 1690., 1.68874072e+03, 1.68998010e+03, 1690., 1681., 1681., 1681., 1681., 1681., 1681., 1681., 1681., 1681., 1681., 1.68542969e+03, 1.68101868e+03, 1690., 1690., 1690., 1.68451343e+03, 1.68940015e+03, 1.68943750e+03, 1681., 1681., 1.68084375e+03, 1681., 1681., 1681., 1.68084351e+03, 1681., 1681., 1681., 1681., 1681., 1681., 1681., 1681., 1.68696533e+03, 1.68978564e+03, 1.68985815e+03, 1.68985938e+03, 1.68957690e+03, 1.68836963e+03, 1.68496997e+03, 1690., 1681., 1.68100439e+03, 1.68743970e+03, 1690., 1690., 1690., 1.68999048e+03, 1.68999109e+03, 1690., 1690., 1690., 1.68186353e+03, 1.68984460e+03, 1.68999890e+03, 1.68828015e+03, 1.68999976e+03, 1.68588745e+03, 1.68999976e+03, 1.68585168e+03, 1690., 1.68999121e+03, 1690., 1690., 1690., 1690., 1690., 1690., 1.68985059e+03, 1690., 1.68923523e+03, 1.68982422e+03, 1.68578650e+03, 1.68578174e+03, 1681., 1.68606812e+03, 1681., 1.68721387e+03, 1.68736328e+03, 1690., 1690., 1690., 1690., 1.69000012e+03, 1.69595117e+03, 1698., 1698., 1.69000110e+03, 1.69182812e+03, 1.69000122e+03, 1.69001514e+03, 1690., 1.69000781e+03, 1.69000781e+03, 1.69000781e+03, 1.69018188e+03, 1.69493286e+03, 1704., 1706., 1706., 1706., 1706., 1706., 1706., 1706., 1698., 1698., 1698., 1698., 1698., 1698., 1698., 1698., 1698., 1698., 1698., 1698., 1698., 1698., 1.70198340e+03, 1706., 1704., 1.70537402e+03, 1.69910742e+03, 1.69800195e+03, 1.70549976e+03, 1.70202979e+03, 1698., 1698., 1698., 1698., 1.69825000e+03, 1.70596875e+03, 1.70594458e+03, 1706., 1706., 1706., 1.70600110e+03, 1.71475317e+03, 1.71473560e+03,
       1.68133398e+03, 1.68816602e+03, 1.68943311e+03, 1.68999561e+03, 1690., 1690., 1690., 1681., 1.68156250e+03, 1681., 1681., 1681., 1681., 1681., 1.68363049e+03, 1690., 1690., 1.69302661e+03, 1.69702576e+03, 1.69774854e+03, 1.69202344e+03, 1690., 1690., 1.68999561e+03, 1.68216699e+03, 1.68156531e+03, 1681., 1681., 1690., 1.68760278e+03, 1.68136047e+03, 1.68100024e+03, 1.68107043e+03, 1690., 1.68995605e+03, 1690., 1690., 1690., 1.68943774e+03, 1690., 1690., 1690., 1690., 1.68114551e+03, 1.68942639e+03, 1.68913647e+03, 1.68943750e+03, 1.68347461e+03, 1681., 1690., 1.68941772e+03, 1.68100879e+03, 1.68233228e+03, 1690., 1681., 1.68999121e+03, 1.68535474e+03, 1.68161584e+03, 1.68161804e+03, 1.68168835e+03, 1681., 1681., 1681., 1681., 1.68212939e+03, 1.68100024e+03, 1.68999780e+03, 1.68890686e+03, 1.68100024e+03, 1.68101367e+03, 1.68100903e+03, 1.68797766e+03, 1.68340735e+03, 1681., 1681., 1681., 1.68901685e+03, 1.68901624e+03, 1690., 1690., 1690., 1690., 1690., 1681., 1681., 1681., 1681., 1681., 1681., 1681., 1681., 1681., 1681., 1681., 1681., 1.67713098e+03, 1.68049927e+03, 1.68049976e+03, 1681., 1.68968225e+03, 1690., 1690., 1.68996472e+03, 1.68989160e+03, 1.68990942e+03, 1.68156250e+03, 1.68409961e+03, 1681., 1681., 1681., 1681., 1681., 1681., 1681., 1681., 1681., 1681., 1.68542969e+03, 1.68102747e+03, 1690., 1690., 1690., 1.68943750e+03, 1.68332520e+03, 1.68353784e+03, 1681., 1681., 1681., 1681., 1681., 1681., 1681., 1681., 1681., 1681., 1681., 1681., 1681., 1681., 1681., 1.68692822e+03, 1.68753552e+03, 1.68753552e+03, 1.68985596e+03, 1.68837927e+03, 1.68102197e+03, 1.68852075e+03, 1.68964795e+03, 1681., 1681., 1.68114062e+03, 1.68689709e+03, 1690., 1690., 1681., 1681., 1.68997192e+03, 1.68272974e+03, 1.68156934e+03, 1681., 1681., 1.68938770e+03, 1.68943176e+03, 1690., 1.68701477e+03, 1.68999976e+03, 1.68922900e+03, 1690., 1.68999121e+03, 1690., 1690., 1690., 1.68970996e+03, 1.68858472e+03, 1690., 1.68785535e+03, 1.68985938e+03, 1.68550085e+03, 1.68550525e+03, 1681., 1.68578174e+03, 1681., 1.68156262e+03, 1681., 1.68996484e+03, 1.68995605e+03, 1690., 1690., 1690., 1690., 1690., 1.69168762e+03, 1690., 1.69050012e+03, 1690., 1690., 1690., 1690., 1690., 1.69000781e+03, 1690., 1.69005688e+03, 1.69493701e+03, 1696., 1706., 1.71249658e+03, 1706., 1706., 1706., 1.71219739e+03, 1.71106250e+03, 1706., 1.70572656e+03, 1698., 1698., 1698., 1698., 1698., 1698., 1698., 1698., 1698., 1698., 1698., 1698., 1698., 1.69806262e+03, 1.70142786e+03, 1.69800391e+03, 1698., 1698., 1698., 1698., 1698., 1698., 1698., 1698., 1698., 1698., 1698., 1698., 1706., 1706., 1706., 1706., 1.71474878e+03, 1.71050000e+03,
       1681., 1.68103516e+03, 1.68101758e+03, 1.68356055e+03, 1.68996484e+03, 1.68985938e+03, 1.68985938e+03, 1681., 1.68156250e+03, 1681., 1681., 1681., 1.68100122e+03, 1681., 1.68108911e+03, 1.68999951e+03, 1.69106152e+03, 1.69775000e+03, 1.69212512e+03, 1.69715381e+03, 1690., 1690., 1690., 1.68997803e+03, 1.68748120e+03, 1.68100024e+03, 1681., 1681., 1.68998242e+03, 1.68997742e+03, 1.68656396e+03, 1681., 1681., 1.68996484e+03, 1.68770605e+03, 1690., 1690., 1690., 1690., 1690., 1690., 1690., 1690., 1.68765100e+03, 1.68941113e+03, 1.68114111e+03, 1.68943750e+03, 1.68909998e+03, 1681., 1690., 1.68828772e+03, 1.68325879e+03, 1.68226636e+03, 1.68549780e+03, 1681., 1681., 1681., 1681., 1681., 1681., 1681., 1681., 1681., 1681., 1.68212939e+03, 1.68103516e+03, 1.68550000e+03, 1.68999780e+03, 1.68384790e+03, 1.68527698e+03, 1.68724536e+03, 1.68325854e+03, 1.68486694e+03, 1.68452393e+03, 1681., 1.68339062e+03, 1.68998242e+03, 1690., 1690., 1690., 1690., 1690., 1690., 1681., 1681., 1681., 1681., 1681., 1681., 1681., 1681., 1681., 1681., 1.68096875e+03, 1681., 1.67813086e+03, 1681., 1681., 1681., 1681., 1.68996301e+03, 1690., 1.68100439e+03, 1681., 1681., 1681., 1681., 1681., 1681., 1681., 1681., 1681., 1681., 1681., 1681., 1681., 1681., 1.68542969e+03, 1.68100989e+03, 1690., 1690., 1.68113367e+03, 1681., 1681., 1681., 1681., 1681., 1.68087500e+03, 1.68082812e+03, 1681., 1681., 1681., 1681., 1681., 1681., 1681., 1681., 1681., 1681., 1681., 1.68214258e+03, 1.68753564e+03, 1.68753552e+03, 1.68247302e+03, 1.68162927e+03, 1.68105713e+03, 1690., 1690., 1.68117578e+03, 1.68121155e+03, 1.68690149e+03, 1690., 1690., 1690., 1.68230078e+03, 1681., 1.68997241e+03, 1.68156738e+03, 1681., 1681., 1681., 1681., 1.68107080e+03, 1.68107043e+03, 1681., 1.68697729e+03, 1681., 1.68690649e+03, 1681., 1.68983240e+03, 1.68999121e+03, 1690., 1681., 1.68325574e+03, 1690., 1.68873438e+03, 1.68785522e+03, 1681., 1681., 1681., 1.68578174e+03, 1681., 1.68156250e+03, 1681., 1.68728418e+03, 1.68728333e+03, 1690., 1690., 1690., 1690., 1690., 1690., 1690., 1690., 1690., 1690., 1690., 1690., 1690., 1.69001587e+03, 1690., 1.69002563e+03, 1698., 1698., 1706., 1706., 1706., 1706., 1706., 1706., 1706., 1.70587500e+03, 1.69856250e+03, 1698., 1698., 1698., 1698., 1698., 1698., 1698., 1698., 1698., 1698., 1698., 1698., 1698., 1698., 1698., 1698., 1698., 1698., 1698., 1698., 1698., 1698., 1698., 1698., 1698., 1698., 1698., 1698., 1.70598376e+03, 1706., 1.70628125e+03, 1706., 1715., 1.71499951e+03,
       1681., 1.68103516e+03, 1681., 1681., 1.68268750e+03, 1.68410620e+03, 1.68409741e+03, 1681., 1681., 1681., 1681., 1681., 1681., 1681., 1.68100110e+03, 1.68999939e+03, 1.69366907e+03, 1.69768506e+03, 1692., 1.69713416e+03, 1690., 1690., 1690., 1.68997803e+03, 1.68999976e+03, 1690., 1.68908362e+03, 1.68213403e+03, 1.68999927e+03, 1.68999890e+03, 1690., 1681., 1681., 1.68771484e+03, 1.68770605e+03, 1690., 1690., 1690., 1690., 1690., 1690., 1690., 1690., 1690., 1.68943750e+03, 1.68676611e+03, 1690., 1.68938245e+03, 1681., 1.68884351e+03, 1.68796228e+03, 1681., 1681., 1681., 1681., 1681., 1681., 1681., 1681., 1681., 1681., 1681., 1681., 1681., 1.68409155e+03, 1.68101758e+03, 1.68859155e+03, 1.68999976e+03, 1681., 1.68103516e+03, 1681., 1.68325000e+03, 1.68452173e+03, 1.68452112e+03, 1681., 1.68325000e+03, 1.68902197e+03, 1.68941992e+03, 1690., 1690., 1.68998242e+03, 1.68930151e+03, 1681., 1681., 1681., 1681., 1681., 1681., 1681., 1681., 1681., 1681., 1681., 1681., 1.68096875e+03, 1.67807642e+03, 1681., 1681., 1681., 1681., 1681., 1681., 1681., 1681., 1681., 1681., 1681., 1681., 1681., 1681., 1681., 1681., 1681., 1681., 1681., 1681., 1681., 1.68100989e+03, 1681., 1690., 1.68106274e+03, 1681., 1681., 1681., 1681., 1681., 1681., 1675., 1.67525977e+03, 1681., 1681., 1681., 1.68087500e+03, 1.68087109e+03, 1681., 1681., 1681., 1681., 1681., 1681., 1.68101758e+03, 1.68133484e+03, 1.68753552e+03, 1.68189734e+03, 1.68103516e+03, 1681., 1.68101807e+03, 1.68718604e+03, 1681., 1.68574011e+03, 1.68572253e+03, 1.68943750e+03, 1690., 1690., 1.68941846e+03, 1681., 1.68991077e+03, 1681., 1.68156250e+03, 1681., 1681., 1.68135425e+03, 1.68557092e+03, 1.68983716e+03, 1.68557104e+03, 1.68926367e+03, 1681., 1.68926196e+03, 1.68662634e+03, 1.68999121e+03, 1690., 1690., 1.68325024e+03, 1.68844421e+03, 1690., 1.68985938e+03, 1.68108435e+03, 1681., 1681., 1681., 1.68578174e+03, 1681., 1.68156250e+03, 1681., 1690., 1690., 1690., 1690., 1690., 1690., 1690., 1690., 1690., 1690., 1690., 1690., 1.68996484e+03, 1690., 1690., 1690., 1690., 1690., 1696., 1696., 1706., 1706., 1706., 1706., 1706., 1.70656250e+03, 1706., 1706., 1.70572168e+03, 1698., 1698., 1698., 1698., 1698., 1698., 1698., 1698., 1698., 1698., 1698., 1698., 1698., 1698., 1698., 1698., 1.70303125e+03, 1698., 1698., 1698., 1698., 1698., 1698., 1698., 1698., 1698., 1698., 1698., 1.70596875e+03, 1.70628125e+03, 1706., 1706., 1.71478894e+03, 1.71492090e+03,
       1681., 1.68103516e+03, 1.68780273e+03, 1681., 1.68101758e+03, 1.68100012e+03, 1681., 1681., 1681., 1681., 1681., 1681., 1681., 1681., 1.68101099e+03, 1.68985938e+03, 1693., 1692., 1690., 1.69000012e+03, 1690., 1690., 1.68970117e+03, 1690., 1690., 1.68690625e+03, 1.68755481e+03, 1.68212500e+03, 1.68240625e+03, 1.68308301e+03, 1.68758557e+03, 1.68128125e+03, 1681., 1.68588013e+03, 1681., 1.68131641e+03, 1.68105310e+03, 1.68253369e+03, 1.68774561e+03, 1690., 1.68985938e+03, 1690., 1690., 1690., 1.68941113e+03, 1681., 1.68943750e+03, 1.68941992e+03, 1.68800244e+03, 1.68999951e+03, 1.68887439e+03, 1.68830737e+03, 1.68776782e+03, 1.68775024e+03, 1681., 1681., 1681., 1681., 1.67699976e+03, 1681., 1681., 1681., 1.68158496e+03, 1681., 1.68121094e+03, 1681., 1690., 1.68247681e+03, 1.68219556e+03, 1681., 1681., 1681., 1.68100110e+03, 1.68100110e+03, 1681., 1681., 1.68325000e+03, 1.68905908e+03, 1.68998242e+03, 1.68930566e+03, 1.68930273e+03, 1681., 1681., 1681., 1681., 1681., 1681., 1681., 1681., 1681., 1681., 1681., 1681., 1681., 1681., 1.68096875e+03, 1681., 1681., 1681., 1681., 1681., 1681., 1681., 1681., 1681., 1681., 1681., 1681., 1681., 1681., 1681., 1681., 1681., 1681., 1681., 1681., 1681., 1.68100110e+03, 1681., 1.68943750e+03, 1.68100122e+03, 1681., 1681., 1681., 1681., 1681., 1681., 1.67500781e+03, 1673., 1.67987109e+03, 1681., 1.67976123e+03, 1.67987097e+03, 1.68037073e+03, 1681., 1681., 1681., 1681., 1681., 1681., 1.68245947e+03, 1.68760596e+03, 1.68760596e+03, 1.68753564e+03, 1.68999670e+03, 1.68101758e+03, 1.68999658e+03, 1690., 1681., 1.68999890e+03, 1.68940125e+03, 1690., 1690., 1690., 1.68941858e+03, 1.68550220e+03, 1.68751978e+03, 1681., 1681., 1681., 1681., 1.68557300e+03, 1.68782300e+03, 1.68557104e+03, 1681., 1.68219531e+03, 1681., 1.68212500e+03, 1.68100110e+03, 1.68458728e+03, 1690., 1690., 1.68329089e+03, 1690., 1690., 1690., 1.68645776e+03, 1.68550000e+03, 1681., 1681., 1.68757422e+03, 1681., 1.68156714e+03, 1.68606274e+03, 1690., 1690., 1690., 1690., 1.69000012e+03, 1.69000012e+03, 1690., 1690., 1690., 1690., 1690., 1690., 1690., 1690., 1690., 1690., 1690., 1690., 1.69408044e+03, 1.69471375e+03, 1706., 1.70658044e+03, 1706., 1.70656250e+03, 1.70657263e+03, 1.71005371e+03, 1.71360437e+03, 1706., 1.70598438e+03, 1698., 1698., 1698., 1698., 1698., 1698., 1698., 1698., 1698., 1698., 1698., 1698., 1698., 1698., 1698., 1698., 1698., 1698., 1698., 1698., 1698., 1698., 1698., 1698., 1698., 1698., 1698., 1698., 1.70144507e+03, 1.70965991e+03, 1.70628125e+03, 1706., 1.71491577e+03, 1.71463452e+03,
       1681., 1.68104663e+03, 1690., 1.68949146e+03, 1.68963733e+03, 1681., 1681., 1681., 1681., 1681., 1681., 1681., 1681., 1681., 1681., 1.68898071e+03, 1.68901501e+03, 1690., 1690., 1.69001575e+03, 1.69102539e+03, 1.69001147e+03, 1.69524329e+03, 1690., 1690., 1.68999951e+03, 1690., 1.68998059e+03, 1.68240625e+03, 1681., 1.68100024e+03, 1.68581885e+03, 1.68100024e+03, 1.68100024e+03, 1681., 1681., 1681., 1.68302563e+03, 1.68760059e+03, 1.68268774e+03, 1690., 1690., 1690., 1690., 1.68999121e+03, 1.68914697e+03, 1690., 1.68943750e+03, 1.68969238e+03, 1690., 1.68999939e+03, 1.68925220e+03, 1.68775024e+03, 1.68887744e+03, 1681., 1681., 1681., 1681., 1.68114062e+03, 1.68937463e+03, 1.68796533e+03, 1.68101758e+03, 1.68200476e+03, 1.68101807e+03, 1.68431079e+03, 1681., 1690., 1.68460522e+03, 1681., 1681., 1681., 1681., 1681., 1681., 1681., 1681., 1681., 1.68905420e+03, 1.68912488e+03, 1.68929871e+03, 1.68929895e+03, 1681., 1681., 1681., 1681., 1681., 1681., 1681., 1681., 1681., 1681., 1681., 1681., 1.68095312e+03, 1.68095312e+03, 1.68095312e+03, 1681., 1681., 1681., 1681., 1681., 1681., 1681., 1681., 1681., 1681., 1681., 1681., 1681., 1681., 1681., 1681., 1681., 1681., 1681., 1681., 1681., 1681., 1681., 1690., 1681., 1681., 1681., 1681., 1681., 1681., 1.67501721e+03, 1673., 1673., 1673., 1.67983594e+03, 1673., 1.67930847e+03, 1.68087061e+03, 1681., 1681., 1681., 1681., 1681., 1681., 1.68105273e+03, 1.68641064e+03, 1.68303564e+03, 1.68103516e+03, 1.68189734e+03, 1681., 1.68999658e+03, 1690., 1.68686304e+03, 1.68943750e+03, 1.68940112e+03, 1690., 1690., 1.68943750e+03, 1681., 1681., 1.68128345e+03, 1681., 1.68156299e+03, 1.68156299e+03, 1.68755945e+03, 1.68999414e+03, 1.68983594e+03, 1.68107080e+03, 1681., 1681., 1681., 1681., 1681., 1681., 1.68212524e+03, 1.68903894e+03, 1681., 1.68999048e+03, 1.68870508e+03, 1.68872546e+03, 1681., 1681., 1681., 1681., 1.68305054e+03, 1681., 1681., 1.68100024e+03, 1690., 1.68981543e+03, 1690., 1690., 1.69051575e+03, 1.69007825e+03, 1.69006262e+03, 1690., 1690., 1690., 1690., 1690., 1.68999988e+03, 1.68985938e+03, 1690., 1690., 1690., 1690., 1690., 1690., 1.70253015e+03, 1706., 1706., 1.71126880e+03, 1.71492969e+03, 1715., 1715., 1706., 1706., 1698., 1698., 1698., 1698., 1698., 1698., 1698., 1698., 1698., 1698., 1698., 1.69850049e+03, 1.69850000e+03, 1698., 1698., 1698., 1.69800403e+03, 1.69800403e+03, 1698., 1698., 1698., 1698., 1698., 1698., 1698., 1698., 1.69825000e+03, 1.69825000e+03, 1.70599988e+03, 1.70855249e+03, 1.70628125e+03, 1.70865735e+03, 1.70842285e+03, 1.71464087e+03,
       1681., 1.68992529e+03, 1.68907935e+03, 1.68106226e+03, 1690., 1681., 1681., 1681., 1681., 1681., 1681., 1681., 1681., 1681., 1.68099951e+03, 1681., 1681., 1690., 1.68901392e+03, 1690., 1690., 1.68780408e+03, 1.68971875e+03, 1690., 1690., 1.68212500e+03, 1.68999927e+03, 1.68212500e+03, 1681., 1681., 1.68100024e+03, 1.68815247e+03, 1.68759619e+03, 1681., 1681., 1681., 1681., 1681., 1681., 1681., 1681., 1.68274890e+03, 1690., 1.68103625e+03, 1.68900684e+03, 1.68891882e+03, 1690., 1.69000024e+03, 1.69729822e+03, 1.69003149e+03, 1690., 1690., 1.68887500e+03, 1.68878711e+03, 1681., 1681., 1681., 1.67899988e+03, 1.67340088e+03, 1681., 1681., 1681., 1.68369006e+03, 1681., 1.68332031e+03, 1681., 1.68776782e+03, 1.68325000e+03, 1681., 1681., 1681., 1681., 1681., 1681., 1681., 1681., 1681., 1.68325122e+03, 1681., 1681., 1681., 1681., 1681., 1681., 1681., 1681., 1681., 1681., 1681., 1681., 1681., 1681., 1681., 1681., 1681., 1681., 1681., 1.68163330e+03, 1681., 1681., 1681., 1681., 1681., 1681., 1681., 1681., 1681., 1681., 1681., 1681., 1681., 1681., 1681., 1681., 1681., 1681., 1681., 1681., 1681., 1681., 1681., 1681., 1681., 1681., 1681., 1681., 1.67952026e+03, 1673., 1673., 1673., 1681., 1673., 1.67931189e+03, 1.67930786e+03, 1681., 1681., 1681., 1681., 1681., 1681., 1681., 1.68641406e+03, 1.68161609e+03, 1.68103516e+03, 1.68189734e+03, 1681., 1.68108850e+03, 1.68108838e+03, 1681., 1681., 1681., 1.68940112e+03, 1.68122253e+03, 1.68115161e+03, 1681., 1681., 1.68550220e+03, 1681., 1.68833069e+03, 1681., 1.68952820e+03, 1.68999426e+03, 1.68980066e+03, 1.68107031e+03, 1681., 1681., 1681., 1681., 1681., 1681., 1.68212634e+03, 1.68910938e+03, 1681., 1690., 1690., 1.68985938e+03, 1.68107031e+03, 1681., 1681., 1681., 1681., 1681., 1681., 1681., 1690., 1.68107056e+03, 1690., 1690., 1.69051562e+03, 1.69070325e+03, 1.69468762e+03, 1690., 1690., 1690., 1690., 1690., 1.68727576e+03, 1.68728174e+03, 1690., 1690., 1690., 1690., 1690., 1690., 1.70290515e+03, 1706., 1706., 1.71106250e+03, 1.71106250e+03, 1.71149927e+03, 1.71135327e+03, 1706., 1.70382190e+03, 1698., 1698., 1698., 1698., 1698., 1698., 1698., 1698., 1698., 1698., 1698., 1.69800049e+03, 1.69800049e+03, 1.69800049e+03, 1.70304761e+03, 1698., 1.69803174e+03, 1.69800403e+03, 1698., 1698., 1698., 1698., 1698., 1698., 1.70044043e+03, 1.69825000e+03, 1.69826660e+03, 1698., 1.70199988e+03, 1.70600110e+03, 1706., 1706., 1.70007922e+03, 1.70609705e+03,
       1.68102686e+03, 1690., 1690., 1690., 1690., 1.68552686e+03, 1.68837476e+03, 1.68100879e+03, 1.68996252e+03, 1681., 1681., 1681., 1681., 1681., 1.68059216e+03, 1681., 1681., 1.68100659e+03, 1.68102417e+03, 1690., 1690., 1690., 1690., 1690., 1690., 1.68973633e+03, 1.68999951e+03, 1.68212500e+03, 1681., 1681., 1.68550037e+03, 1.68985889e+03, 1.68100024e+03, 1681., 1681., 1681., 1681., 1681., 1681., 1.67880225e+03, 1681., 1.68272375e+03, 1.68499890e+03, 1.68103516e+03, 1.68506921e+03, 1.68103687e+03, 1690., 1690., 1690., 1690., 1690., 1.68942810e+03, 1690., 1.68992969e+03, 1.68326123e+03, 1681., 1681., 1681., 1681., 1681., 1681., 1681., 1681., 1681., 1.68325879e+03, 1.68325122e+03, 1.68785266e+03, 1.68940015e+03, 1.68325000e+03, 1.68325000e+03, 1681., 1681., 1681., 1681., 1.68093750e+03, 1681., 1681., 1681., 1681., 1681., 1681., 1681., 1681., 1681., 1681., 1681., 1681., 1681., 1681., 1681., 1681., 1.68100012e+03, 1681., 1681., 1681., 1.68100012e+03, 1690., 1690., 1681., 1681., 1681., 1681., 1681., 1681., 1681., 1681., 1681., 1681., 1681., 1681., 1681., 1681., 1681., 1681., 1681., 1681., 1681., 1681., 1681., 1681., 1681., 1681., 1681., 1681., 1681., 1681., 1.68070862e+03, 1.67514600e+03, 1673., 1.67300146e+03, 1.68099219e+03, 1.67689624e+03, 1681., 1.67642554e+03, 1681., 1681., 1681., 1681., 1681., 1681., 1681., 1681., 1681., 1681., 1681., 1681., 1681., 1681., 1681., 1.68107031e+03, 1.68107910e+03, 1.68602625e+03, 1.68572827e+03, 1.68572217e+03, 1.68101099e+03, 1.68550220e+03, 1.68773218e+03, 1.68550220e+03, 1.68550220e+03, 1.68156250e+03, 1.68726941e+03, 1.68994141e+03, 1.68980078e+03, 1681., 1681., 1681., 1681., 1681., 1681., 1681., 1.68100024e+03, 1.68999097e+03, 1681., 1690., 1690., 1690., 1.68136145e+03, 1681., 1681., 1681., 1681., 1681., 1681., 1681., 1.68221350e+03, 1681., 1690., 1690., 1690., 1690., 1690., 1690., 1690., 1690., 1.68774121e+03, 1681., 1.68163782e+03, 1.68165576e+03, 1690., 1690., 1690., 1690., 1690., 1690., 1702., 1.70490515e+03, 1706., 1706., 1706., 1706., 1706., 1706., 1.69806250e+03, 1698., 1698., 1.69798438e+03, 1698., 1698., 1698., 1698., 1698., 1698., 1698., 1.69800049e+03, 1.70537012e+03, 1.70587500e+03, 1.70587500e+03, 1706., 1.70581250e+03, 1.70587500e+03, 1706., 1698., 1698., 1698., 1698., 1698., 1698., 1.70596875e+03, 1.70596875e+03, 1.70199976e+03, 1698., 1.70196851e+03, 1706., 1.69990222e+03, 1.69825098e+03, 1698., 1698.,
       1.68550928e+03, 1690., 1.68746436e+03, 1.68746875e+03, 1.68775000e+03, 1.68551758e+03, 1.68551807e+03, 1681., 1.68128162e+03, 1681., 1681., 1.68082715e+03, 1681., 1681., 1.68096863e+03, 1681., 1681., 1.68212512e+03, 1681., 1690., 1.68507666e+03, 1.68950476e+03, 1.68999695e+03, 1.68984644e+03, 1.68985938e+03, 1681., 1.68268750e+03, 1681., 1681., 1681., 1681., 1.68579028e+03, 1690., 1.68100024e+03, 1681., 1681., 1681., 1681., 1681., 1.67691919e+03, 1681., 1681., 1.68274670e+03, 1681., 1.68103625e+03, 1681., 1.68970996e+03, 1690., 1.68971875e+03, 1.68797327e+03, 1.68325134e+03, 1.68847925e+03, 1.68343604e+03, 1.68850122e+03, 1.68325903e+03, 1681., 1681., 1.68329395e+03, 1681., 1681., 1681., 1681., 1681., 1681., 1681., 1681., 1681., 1681., 1681., 1681., 1681., 1681., 1.68050000e+03, 1681., 1681., 1681., 1681., 1681., 1681., 1681., 1681., 1681., 1681., 1681., 1681., 1681., 1681., 1681., 1681., 1681., 1.68100012e+03, 1.68996423e+03, 1.68325000e+03, 1.68100012e+03, 1.68957544e+03, 1.68985889e+03, 1690., 1.68957812e+03, 1681., 1681., 1681., 1681., 1681., 1.68099902e+03, 1.68099890e+03, 1.68099902e+03, 1.68099902e+03, 1681., 1681., 1681., 1681., 1681., 1681., 1681., 1681., 1681., 1681., 1681., 1681., 1681., 1681., 1681., 1681., 1681., 1681., 1681., 1.68070813e+03, 1.67302051e+03, 1673., 1673., 1.67698999e+03, 1.67699194e+03, 1.67643738e+03, 1.67443335e+03, 1681., 1681., 1681., 1681., 1681., 1681., 1681., 1681., 1681., 1681., 1681., 1681., 1681., 1681., 1681., 1681., 1681., 1681., 1.68558325e+03, 1.68575842e+03, 1.68718750e+03, 1.68715210e+03, 1690., 1.68702905e+03, 1.68998193e+03, 1.68998193e+03, 1.68980078e+03, 1.68980066e+03, 1.68697937e+03, 1681., 1681., 1681., 1681., 1681., 1681., 1681., 1681., 1.68998877e+03, 1681., 1690., 1690., 1690., 1.68437402e+03, 1.68883667e+03, 1681., 1681., 1.68114087e+03, 1681., 1681., 1681., 1681., 1681., 1.68534949e+03, 1690., 1690., 1690., 1690., 1690., 1690., 1690., 1690., 1.68745996e+03, 1.68967114e+03, 1.68910889e+03, 1.68996484e+03, 1690., 1690., 1.68996375e+03, 1690., 1690., 1698., 1698., 1702., 1.70490308e+03, 1.70282471e+03, 1.70398242e+03, 1706., 1.70382544e+03, 1.69806250e+03, 1698., 1698., 1.69785889e+03, 1698., 1.69750000e+03, 1698., 1698., 1698., 1698., 1698., 1.69801611e+03, 1.70536621e+03, 1.70537378e+03, 1.70336011e+03, 1.70530371e+03, 1.69826636e+03, 1.70530469e+03, 1.70328076e+03, 1698., 1698., 1698., 1698., 1698., 1.69825024e+03, 1.70596875e+03, 1.70596875e+03, 1706., 1.69826685e+03, 1.69926929e+03, 1.70599988e+03, 1.69926733e+03, 1.69800098e+03, 1698., 1698.,
       1.68728809e+03, 1690., 1.68775000e+03, 1.68746875e+03, 1.68775000e+03, 1.68550928e+03, 1.68550928e+03, 1681., 1681., 1681., 1681., 1.67726172e+03, 1.68098438e+03, 1.68098438e+03, 1.68085852e+03, 1681., 1.68098401e+03, 1681., 1681., 1.68970117e+03, 1.68448560e+03, 1.68891138e+03, 1.68950464e+03, 1690., 1690., 1.68722278e+03, 1.68977502e+03, 1.68212500e+03, 1681., 1681., 1681., 1681., 1.68245483e+03, 1681., 1681., 1681., 1681., 1681., 1681., 1.67692188e+03, 1681., 1681., 1681., 1681., 1.68103516e+03, 1681., 1690., 1690., 1690., 1.68887720e+03, 1.68550000e+03, 1681., 1.68100024e+03, 1.68849902e+03, 1.68100879e+03, 1.67846802e+03, 1.67846753e+03, 1679., 1.67338928e+03, 1681., 1681., 1681., 1681., 1681., 1681., 1681., 1681., 1681., 1681., 1681., 1681., 1677., 1.67637109e+03, 1681., 1677., 1681., 1681., 1681., 1681., 1681., 1681., 1681., 1681., 1681., 1681., 1681., 1681., 1.68100232e+03, 1681., 1681., 1.68100012e+03, 1.68135388e+03, 1681., 1.68985889e+03, 1690., 1.68674927e+03, 1690., 1.68562524e+03, 1681., 1681., 1681., 1681., 1681., 1.68099902e+03, 1.68099902e+03, 1.68099902e+03, 1.68099902e+03, 1681., 1681., 1681., 1681., 1681., 1681., 1681., 1681., 1681., 1681., 1681., 1681., 1681., 1681., 1681., 1681., 1681., 1681., 1681., 1.68070837e+03, 1.67373926e+03, 1673., 1.67300806e+03, 1.67367334e+03, 1.67314062e+03, 1.67315625e+03, 1.67318286e+03, 1.67342529e+03, 1681., 1681., 1681., 1681., 1681., 1681., 1681., 1681., 1681., 1.68101758e+03, 1681., 1681., 1681., 1681., 1.68332959e+03, 1.68782959e+03, 1.68100903e+03, 1.68943750e+03, 1.68718750e+03, 1690., 1.68943726e+03, 1690., 1.68999976e+03, 1690., 1690., 1.68726941e+03, 1681., 1681., 1681., 1681., 1681., 1681., 1681., 1681., 1681., 1.68931580e+03, 1.68998877e+03, 1681., 1690., 1690., 1690., 1.68999915e+03, 1.68887415e+03, 1681., 1681., 1.68100110e+03, 1681., 1681., 1681., 1681., 1681., 1.68448364e+03, 1.68985938e+03, 1690., 1690., 1690., 1690., 1690., 1.69414746e+03, 1690., 1690., 1690., 1.68996484e+03, 1690., 1690., 1690., 1.68999890e+03, 1690., 1.68995483e+03, 1698., 1698., 1698., 1698., 1698., 1.70225000e+03, 1.70284497e+03, 1.69831348e+03, 1698., 1698., 1698., 1.69735889e+03, 1698., 1.69737305e+03, 1.69750000e+03, 1698., 1698., 1698., 1698., 1698., 1.69801611e+03, 1.69801624e+03, 1.69800049e+03, 1.69801611e+03, 1.69801636e+03, 1.70227222e+03, 1.70328125e+03, 1698., 1698., 1.69800012e+03, 1698., 1.70226697e+03, 1.70433923e+03, 1706., 1706., 1706., 1.69933179e+03, 1.70183179e+03, 1.70599988e+03, 1.69929858e+03, 1.69926733e+03, 1698., 1.69800208e+03,
       1.68721777e+03, 1690., 1.68775000e+03, 1.68775000e+03, 1.68741479e+03, 1.68550879e+03, 1681., 1681., 1681., 1681., 1681., 1677., 1.67925684e+03, 1.67700391e+03, 1.67300684e+03, 1.67997620e+03, 1.67906787e+03, 1681., 1681., 1.68437939e+03, 1.68898535e+03, 1.68891577e+03, 1.68437939e+03, 1690., 1690., 1.68982556e+03, 1.68525525e+03, 1.68156250e+03, 1681., 1681., 1681., 1681., 1681., 1681., 1681., 1681., 1681., 1681., 1681., 1.68087305e+03, 1681., 1.67699951e+03, 1.68100049e+03, 1681., 1681., 1681., 1.68957812e+03, 1690., 1.68957812e+03, 1.68666675e+03, 1.68103516e+03, 1681., 1681., 1.68835730e+03, 1681., 1681., 1.68049976e+03, 1681., 1.67746753e+03, 1681., 1681., 1681., 1681., 1681., 1681., 1681., 1681., 1681., 1681., 1.68332031e+03, 1.67383618e+03, 1.68049609e+03, 1.68049609e+03, 1681., 1681., 1681., 1681., 1681., 1681., 1681., 1681., 1681., 1681., 1681., 1681., 1681., 1681., 1681., 1681., 1681., 1681., 1681., 1681., 1.68783484e+03, 1.68957544e+03, 1.68100110e+03, 1.68550122e+03, 1681., 1681., 1681., 1681., 1681., 1681., 1681., 1681., 1681., 1681., 1681., 1681., 1681., 1681., 1681., 1681., 1681., 1681., 1681., 1681., 1681., 1681., 1681., 1681., 1681., 1681., 1681., 1681., 1681., 1681., 1.67823926e+03, 1.67301562e+03, 1673., 1673., 1673., 1673., 1.67303125e+03, 1673., 1.67330005e+03, 1.67393701e+03, 1681., 1681., 1681., 1681., 1681., 1681., 1681., 1681., 1681., 1681., 1681., 1681., 1.68844824e+03, 1.68844824e+03, 1.68104565e+03, 1690., 1690., 1690., 1690., 1690., 1.68999976e+03, 1690., 1690., 1.68670703e+03, 1.68100879e+03, 1681., 1681., 1681., 1681., 1681., 1681., 1681., 1681., 1.68254797e+03, 1.68999097e+03, 1.68931567e+03, 1690., 1690., 1690., 1690., 1690., 1681., 1.68100110e+03, 1.68325122e+03, 1681., 1681., 1681., 1681., 1681., 1690., 1690., 1690., 1690., 1690., 1690., 1690., 1.69027295e+03, 1690., 1690., 1690., 1.68939233e+03, 1.68339502e+03, 1.68996484e+03, 1.68996484e+03, 1.68397949e+03, 1.68996362e+03, 1.68880493e+03, 1698., 1698., 1698., 1.70275391e+03, 1702., 1.70294287e+03, 1.70598242e+03, 1.70595117e+03, 1698., 1698., 1698., 1.69799951e+03, 1698., 1.69734119e+03, 1.69737500e+03, 1698., 1698., 1698., 1698., 1698., 1.69800049e+03, 1.69800061e+03, 1698., 1.69801562e+03, 1.69801562e+03, 1.69826587e+03, 1.70227368e+03, 1698., 1698., 1698., 1698., 1.69825024e+03, 1.70425024e+03, 1.70596875e+03, 1.70596875e+03, 1706., 1.69801685e+03, 1.69826685e+03, 1.70080054e+03, 1698., 1698., 1698., 1698.,
       1.68775000e+03, 1690., 1.68775000e+03, 1.68775000e+03, 1.68775000e+03, 1.68741003e+03, 1.68100879e+03, 1681., 1681., 1681., 1681., 1673., 1.67725684e+03, 1.67792529e+03, 1.68114062e+03, 1.67914807e+03, 1.67917883e+03, 1681., 1681., 1.68941663e+03, 1.68898535e+03, 1.68899829e+03, 1681., 1.68983057e+03, 1.68985254e+03, 1681., 1681., 1681., 1681., 1681., 1681., 1681., 1681., 1681., 1681., 1681., 1681., 1681., 1681., 1681., 1677., 1.67662256e+03, 1681., 1681., 1681., 1681., 1.68218628e+03, 1690., 1.68675525e+03, 1.68985889e+03, 1.68103516e+03, 1681., 1681., 1.68100024e+03, 1681., 1681., 1.68099976e+03, 1681., 1681., 1681., 1681., 1681., 1681., 1681., 1681., 1681., 1681., 1681., 1681., 1.68332031e+03, 1.67786816e+03, 1.68098828e+03, 1.68099609e+03, 1681., 1681., 1681., 1681., 1681., 1681., 1681., 1681., 1681., 1681., 1681., 1681., 1681., 1681., 1681., 1681., 1681., 1681., 1681., 1681., 1681., 1.68553625e+03, 1681., 1681., 1681., 1681., 1681., 1681., 1681., 1681., 1681., 1681., 1681., 1681., 1681., 1681., 1681., 1681., 1681., 1681., 1681., 1681., 1681., 1681., 1681., 1681., 1681., 1681., 1681., 1681., 1681., 1681., 1681., 1681., 1681., 1.67814062e+03, 1673., 1673., 1673., 1673., 1673., 1673., 1.67303125e+03, 1.67331177e+03, 1681., 1681., 1681., 1681., 1681., 1681., 1681., 1681., 1.68326758e+03, 1.68107031e+03, 1681., 1.68384802e+03, 1.68393726e+03, 1.68887500e+03, 1.68161255e+03, 1690., 1690., 1690., 1.68711719e+03, 1.68718750e+03, 1.68718750e+03, 1.68943750e+03, 1.68684766e+03, 1681., 1681., 1681., 1681., 1681., 1681., 1681., 1681., 1681., 1681., 1681., 1.68263647e+03, 1.68128235e+03, 1690., 1690., 1690., 1690., 1690., 1.68123193e+03, 1690., 1690., 1.68435706e+03, 1681., 1681., 1.68103516e+03, 1681., 1690., 1.68943640e+03, 1690., 1690., 1690., 1690., 1690., 1.69031787e+03, 1690., 1690., 1690., 1.68939343e+03, 1681., 1.68339062e+03, 1681., 1681., 1681., 1681., 1.69799988e+03, 1698., 1698., 1.70225391e+03, 1698., 1.70281763e+03, 1.70281372e+03, 1698., 1698., 1698., 1698., 1.69799805e+03, 1698., 1.69787305e+03, 1.69737305e+03, 1698., 1698., 1698., 1698., 1698., 1698., 1698., 1698., 1698., 1698., 1698., 1698., 1698., 1698., 1698., 1698., 1698., 1698., 1.70546826e+03, 1.70133728e+03, 1.69930005e+03, 1698., 1698., 1698., 1698., 1698., 1698., 1698.,
       1.68775000e+03, 1690., 1.68775000e+03, 1.68774890e+03, 1.68775000e+03, 1.68726880e+03, 1.68100879e+03, 1681., 1681., 1681., 1681., 1.67700195e+03, 1673., 1.67726904e+03, 1.67912891e+03, 1.67914270e+03, 1.67949207e+03, 1.68100110e+03, 1.68445081e+03, 1.68994727e+03, 1690., 1.68943530e+03, 1.68662500e+03, 1690., 1690., 1690., 1.68300586e+03, 1.68300525e+03, 1681., 1681., 1.68533716e+03, 1681., 1.68549829e+03, 1681., 1681., 1681., 1681., 1681., 1681., 1681., 1681., 1677., 1681., 1681., 1681., 1681., 1.68226538e+03, 1690., 1681., 1.68755505e+03, 1681., 1681., 1681., 1681., 1.68100024e+03, 1681., 1.68156250e+03, 1.68129932e+03, 1681., 1681., 1681., 1681., 1681., 1681., 1681., 1681., 1681., 1681., 1681., 1.68107031e+03, 1.68783813e+03, 1.68098828e+03, 1.68047266e+03, 1681., 1681., 1681., 1681., 1681., 1681., 1681., 1681., 1681., 1681., 1681., 1681., 1681., 1681., 1681., 1681., 1681., 1681., 1681., 1681., 1681., 1681., 1681., 1681., 1681., 1681., 1681., 1681., 1681., 1681., 1681., 1681., 1681., 1681., 1681., 1681., 1681., 1681., 1681., 1681., 1681., 1681., 1681., 1681., 1681., 1681., 1681., 1681., 1681., 1681., 1681., 1681., 1681., 1681., 1681., 1.67401562e+03, 1673., 1673., 1673., 1673., 1.67300781e+03, 1673., 1.67304517e+03, 1.67304517e+03, 1681., 1681., 1681., 1681., 1681., 1681., 1681., 1681., 1681., 1681., 1681., 1.68156274e+03, 1.68156287e+03, 1.68156287e+03, 1.68100024e+03, 1.68189575e+03, 1.68103516e+03, 1.68104407e+03, 1.68100879e+03, 1.68581152e+03, 1.68551050e+03, 1.68690625e+03, 1.68107983e+03, 1.68100879e+03, 1681., 1681., 1681., 1681., 1681., 1681., 1681., 1681., 1681., 1681., 1.68100110e+03, 1.68100110e+03, 1.68671680e+03, 1690., 1690., 1690., 1690., 1681., 1690., 1.68349768e+03, 1.68325000e+03, 1681., 1681., 1681., 1681., 1681., 1681., 1690., 1690., 1690., 1690., 1690., 1690., 1690., 1690., 1690., 1.68940234e+03, 1681., 1.68339062e+03, 1681., 1681., 1681., 1681., 1.69796570e+03, 1.69799805e+03, 1698., 1698., 1698., 1698., 1698., 1698., 1698., 1698., 1698., 1698., 1698., 1698., 1698., 1698., 1698., 1698., 1698., 1698., 1698., 1698., 1698., 1698., 1698., 1698., 1698., 1698., 1698., 1.69802356e+03, 1698., 1698., 1698., 1.69800024e+03, 1.69800024e+03, 1.69800122e+03, 1698., 1698., 1698., 1698., 1698., 1698., 1698.,
       1.68729297e+03, 1690., 1.68743250e+03, 1.68670630e+03, 1.68670630e+03, 1681., 1681., 1681., 1681., 1.68087500e+03, 1.68087036e+03, 1673., 1.67728613e+03, 1.68120117e+03, 1.67848828e+03, 1.67714270e+03, 1.68051477e+03, 1.68122974e+03, 1.68914490e+03, 1690., 1.68943750e+03, 1.68999780e+03, 1681., 1.68998242e+03, 1.68983496e+03, 1.68184448e+03, 1.68156250e+03, 1.68156250e+03, 1.68339062e+03, 1681., 1.69013281e+03, 1.68356653e+03, 1.68999829e+03, 1.68114722e+03, 1681., 1681., 1681., 1681., 1681., 1681., 1681., 1681., 1681., 1681., 1681., 1681., 1681., 1690., 1681., 1.68221069e+03, 1681., 1681., 1681., 1681., 1681., 1681., 1681., 1681., 1681., 1681., 1681., 1681., 1681., 1681., 1681., 1681., 1681., 1681., 1681., 1.68107031e+03, 1.68120557e+03, 1681., 1681., 1681., 1681., 1681., 1681., 1681., 1681., 1681., 1681., 1681., 1681., 1681., 1681., 1681., 1681., 1681., 1681., 1681., 1681., 1681., 1681., 1681., 1.68103516e+03, 1681., 1681., 1681., 1681., 1681., 1681., 1681., 1681., 1681., 1681., 1681., 1681., 1681., 1681., 1681., 1681., 1681., 1681., 1681., 1.68564172e+03, 1681., 1681., 1681., 1681., 1681., 1681., 1681., 1681., 1681., 1681., 1681., 1681., 1681., 1.68099805e+03, 1.68093420e+03, 1.67693066e+03, 1.67338281e+03, 1.67413306e+03, 1.67442090e+03, 1.67300391e+03, 1.67342188e+03, 1.67301392e+03, 1680., 1681., 1681., 1681., 1681., 1681., 1681., 1681., 1681., 1681., 1681., 1681., 1.68100024e+03, 1.68100024e+03, 1681., 1.68103540e+03, 1681., 1.68106250e+03, 1.68100879e+03, 1.68100879e+03, 1681., 1.68100891e+03, 1.68100879e+03, 1681., 1681., 1681., 1681., 1681., 1681., 1681., 1681., 1681., 1681., 1.68212500e+03, 1.68212720e+03, 1.68260815e+03, 1.68696729e+03, 1690., 1690., 1690., 1690., 1.68903687e+03, 1690., 1.68970557e+03, 1.68949243e+03, 1681., 1681., 1681., 1.68075000e+03, 1681., 1.68099902e+03, 1681., 1681., 1.68999878e+03, 1690., 1690., 1690., 1690., 1690., 1690., 1.68114502e+03, 1681., 1.68339062e+03, 1.68114062e+03, 1681., 1.68565820e+03, 1.68339087e+03, 1698., 1.69796680e+03, 1698., 1698., 1698., 1698., 1698., 1698., 1698., 1698., 1698., 1698., 1698., 1698., 1698., 1698., 1698., 1698., 1698., 1698., 1698., 1698., 1698., 1698., 1698., 1698., 1.69800012e+03, 1698., 1.70227466e+03, 1.70587061e+03, 1.69802356e+03, 1.69800024e+03, 1698., 1.69800024e+03, 1698., 1698., 1698., 1698., 1698., 1698., 1698., 1698., 1698.,
       1.68743359e+03, 1.68771484e+03, 1.68100928e+03, 1.68100879e+03, 1.68100879e+03, 1681., 1681., 1681., 1681., 1.67600244e+03, 1.67700195e+03, 1.67703540e+03, 1.68220398e+03, 1690., 1.68123413e+03, 1.67849609e+03, 1.68604370e+03, 1.68605151e+03, 1.68999121e+03, 1690., 1690., 1690., 1.68772034e+03, 1690., 1.68998242e+03, 1690., 1.68997998e+03, 1.68420117e+03, 1.68400586e+03, 1681., 1.69000781e+03, 1.68428955e+03, 1690., 1.68100439e+03, 1681., 1681., 1681., 1681., 1681., 1681., 1.68109692e+03, 1681., 1.68100012e+03, 1.68419312e+03, 1.68325012e+03, 1681., 1.68100439e+03, 1690., 1681., 1.68750281e+03, 1681., 1681., 1681., 1.68100439e+03, 1681., 1681., 1681., 1681., 1681., 1681., 1681., 1681., 1681., 1681., 1681., 1681., 1681., 1681., 1681., 1681., 1681., 1681., 1681., 1681., 1681., 1681., 1681., 1681., 1681., 1681., 1681., 1681., 1681., 1681., 1681., 1681., 1681., 1681., 1681., 1681., 1681., 1681., 1681., 1681., 1681., 1681., 1681., 1681., 1681., 1681., 1681., 1681., 1681., 1681., 1681., 1681., 1681., 1680., 1681., 1.68095703e+03, 1681., 1681., 1681., 1.68550269e+03, 1690., 1681., 1.68171008e+03, 1681., 1681., 1681., 1681., 1681., 1681., 1681., 1681., 1681., 1681., 1681., 1.68093530e+03, 1.67367200e+03, 1673., 1673., 1673., 1.67316821e+03, 1673., 1.67313965e+03, 1.67300781e+03, 1.67370312e+03, 1.67996875e+03, 1681., 1681., 1681., 1681., 1681., 1681., 1681., 1681., 1681., 1681., 1.68156274e+03, 1.68100024e+03, 1681., 1.68103540e+03, 1681., 1.68103552e+03, 1681., 1681., 1681., 1681., 1681., 1681., 1681., 1681., 1681., 1681., 1681., 1681., 1681., 1681., 1.68100220e+03, 1681., 1681., 1681., 1681., 1.68498877e+03, 1.68835498e+03, 1681., 1.68325671e+03, 1.68325000e+03, 1690., 1690., 1690., 1681., 1681., 1681., 1.67675000e+03, 1681., 1.67687292e+03, 1681., 1681., 1.68110986e+03, 1690., 1690., 1690., 1690., 1690., 1690., 1.68707178e+03, 1.68714209e+03, 1.68594653e+03, 1.68114062e+03, 1.68115820e+03, 1.68101758e+03, 1.68108801e+03, 1698., 1.69796680e+03, 1698., 1.69787305e+03, 1698., 1698., 1698., 1698., 1698., 1698., 1698., 1698., 1698., 1698., 1698., 1698., 1698., 1698., 1698., 1698., 1698., 1698., 1698., 1698., 1698., 1698., 1698., 1698., 1698., 1.69801575e+03, 1698., 1698., 1698., 1698., 1698., 1698., 1698., 1698., 1698., 1698., 1698., 1698., 1698.,
       1.68671277e+03, 1.68100964e+03, 1681., 1681., 1681., 1681., 1681., 1681., 1681., 1.68027698e+03, 1.67930042e+03, 1.67303784e+03, 1.68220190e+03, 1.68984619e+03, 1.68126514e+03, 1.68100977e+03, 1.68886401e+03, 1.68661450e+03, 1.68999121e+03, 1690., 1690., 1690., 1.68717529e+03, 1690., 1.68999780e+03, 1690., 1690., 1690., 1.68970093e+03, 1.68385840e+03, 1690., 1681., 1.68505908e+03, 1681., 1681., 1681., 1681., 1681., 1681., 1681., 1681., 1681., 1681., 1.68996375e+03, 1.68248633e+03, 1681., 1681., 1690., 1681., 1.68774976e+03, 1681., 1681., 1681., 1681., 1681., 1681., 1681., 1681., 1681., 1681., 1681., 1681., 1681., 1681., 1681., 1681., 1681., 1681., 1681., 1681., 1681., 1681., 1681., 1681., 1681., 1681., 1681., 1681., 1681., 1681., 1681., 1681., 1681., 1681., 1681., 1681., 1681., 1681., 1681., 1681., 1681., 1681., 1681., 1681., 1681., 1681., 1681., 1681., 1681., 1681., 1681., 1681., 1681., 1681., 1681., 1681., 1681., 1681., 1681., 1.68096875e+03, 1681., 1681., 1681., 1.68966602e+03, 1690., 1.68100439e+03, 1.68966602e+03, 1.68114624e+03, 1681., 1681., 1681., 1681., 1681., 1681., 1681., 1681., 1681., 1.68074414e+03, 1.67350000e+03, 1673., 1673., 1673., 1673., 1.67300781e+03, 1673., 1.67513965e+03, 1.67351367e+03, 1.67975000e+03, 1681., 1681., 1681., 1681., 1681., 1681., 1681., 1681., 1681., 1681., 1681., 1.68156274e+03, 1.68100024e+03, 1681., 1.68100024e+03, 1681., 1681., 1681., 1681., 1681., 1681., 1681., 1681., 1681., 1681., 1681., 1681., 1681., 1681., 1681., 1681., 1681., 1681., 1681., 1681., 1681., 1.68100720e+03, 1.68100720e+03, 1681., 1.68425952e+03, 1.68383765e+03, 1690., 1690., 1690., 1.68325061e+03, 1681., 1681., 1681., 1681., 1.68099805e+03, 1681., 1681., 1.68928479e+03, 1690., 1690., 1690., 1690., 1690., 1690., 1690., 1690., 1.68707190e+03, 1.68114062e+03, 1.68115869e+03, 1.68122925e+03, 1.68122864e+03, 1698., 1.69796875e+03, 1.69796240e+03, 1.69182166e+03, 1698., 1698., 1698., 1698., 1698., 1698., 1698., 1698., 1698., 1698., 1698., 1698., 1698., 1698., 1698., 1698., 1698., 1698., 1698., 1698., 1698., 1698., 1698., 1698., 1698., 1698., 1694., 1698., 1.69799597e+03, 1.69393311e+03, 1698., 1.69800012e+03, 1.69799609e+03, 1.69793262e+03, 1698., 1698., 1698., 1698., 1698. ]
