%YAML:1.0
table_background_depth_map: !!opencv-matrix
   rows: 31
   cols: 247
   dt: f
   data: [ 1.64098633e+03, 1.63814209e+03, 1.63901709e+03, 1641., 1641., 1641., 1.63403003e+03, 1.63401636e+03, 1.63415356e+03, 1641., 1.63919507e+03, 1.63401379e+03, 1634., 1634., 1634., 1.62700232e+03, 1626., 1626., 1626., 1626., 1626., 1626., 1.63003223e+03, 1.63287024e+03, 1634., 1634., 1.63400024e+03, 1.63400024e+03, 1634., 1.63932202e+03, 1.63400012e+03, 1.63593201e+03, 1634., 1.63848438e+03, 1634., 1634., 1.62999988e+03, 1.62703748e+03, 1626., 1626., 1626., 1626., 1626., 1626., 1626., 1626., 1.62706689e+03, 1.62706494e+03, 1.62600195e+03, 1.62720703e+03, 1.62606543e+03, 1626., 1626., 1626., 1.62026135e+03, 1.62075354e+03, 1.62481250e+03, 1.62480469e+03, 1.62028125e+03, 1.62078906e+03, 1.62160376e+03, 1620., 1626., 1626., 1626., 1.62038879e+03, 1.62013098e+03, 1.62192163e+03, 1.62038049e+03, 1.62047510e+03, 1618., 1618., 1618., 1.62206250e+03, 1.62231250e+03, 1618., 1618., 1618., 1618., 1618., 1618., 1618., 1618., 1.61487610e+03, 1.61635950e+03, 1.61799829e+03, 1618., 1618., 1618., 1618., 1618., 1.61210217e+03, 1.61273621e+03, 1.61108203e+03, 1.61105469e+03, 1.61406128e+03, 1618., 1.62599951e+03, 1.62599951e+03, 1626., 1.62199646e+03, 1.62199756e+03, 1.61999744e+03, 1.61900195e+03, 1626., 1626., 1.62370312e+03, 1626., 1626., 1626., 1626., 1626., 1.61825098e+03, 1.62133777e+03, 1626., 1.61901562e+03, 1.62112695e+03, 1618., 1.62000220e+03, 1.62000195e+03, 1.62157812e+03, 1.61800208e+03, 1.61800195e+03, 1.62507019e+03, 1.61806458e+03, 1.62356946e+03, 1626., 1.62398438e+03, 1626., 1626., 1626., 1626., 1626., 1626., 1.61835498e+03, 1.61850000e+03, 1.61844873e+03, 1618., 1.62232764e+03, 1618., 1618., 1618., 1618., 1618., 1618., 1618., 1618., 1618., 1618., 1618., 1618., 1618., 1618., 1618., 1618., 1618., 1618., 1618., 1618., 1618., 1618., 1.61809521e+03, 1626., 1.61803223e+03, 1626., 1.61800488e+03, 1626., 1.62481177e+03, 1.61800598e+03, 1.61800391e+03, 1618., 1618., 1618., 1618., 1.61778125e+03, 1.61850439e+03, 1618., 1618., 1618., 1.61806250e+03, 1618., 1.61806348e+03, 1618., 1.61800012e+03, 1.62521094e+03, 1.62519531e+03, 1.62395557e+03, 1.61800024e+03, 1618., 1618., 1626., 1.62493713e+03, 1626., 1.62492163e+03, 1.61854639e+03, 1.62092163e+03, 1.61803223e+03, 1618., 1618., 1618., 1618., 1618., 1.62466333e+03, 1618., 1626., 1626., 1.61800195e+03, 1.62423816e+03, 1618., 1.61958899e+03, 1618., 1.61950000e+03, 1618., 1.62350977e+03, 1626., 1626., 1626., 1626., 1618., 1.61812891e+03, 1618., 1618., 1618., 1618., 1618., 1618., 1618., 1618., 1.62599951e+03, 1626., 1626., 1626., 1626., 1626., 1626., 1626., 1626., 1626., 1626., 1626., 1626., 1626., 1626., 1626., 1626., 1626., 1626.,
       1.63098364e+03, 1.63197998e+03, 1.63396826e+03, 1.63402966e+03, 1.63419434e+03, 1.63815283e+03, 1.63400183e+03, 1.63400012e+03, 1.63415381e+03, 1.64072656e+03, 1.64094531e+03, 1.63400012e+03, 1634., 1.63349976e+03, 1.63368750e+03, 1.62600195e+03, 1.62593652e+03, 1.62581152e+03, 1626., 1626., 1626., 1626., 1630., 1.63203125e+03, 1.63337500e+03, 1626., 1.63399854e+03, 1634., 1.63299023e+03, 1634., 1634., 1.63582190e+03, 1634., 1.63848438e+03, 1634., 1.63451965e+03, 1634., 1634., 1.63399182e+03, 1626., 1626., 1626., 1.62686243e+03, 1.62600195e+03, 1.62600037e+03, 1626., 1.62736621e+03, 1.62736230e+03, 1626., 1.63146094e+03, 1.62708105e+03, 1626., 1626., 1.62493750e+03, 1.62439844e+03, 1.61850293e+03, 1626., 1.62477051e+03, 1618., 1618., 1.61853125e+03, 1620., 1626., 1626., 1626., 1.62042004e+03, 1.61800403e+03, 1.62142700e+03, 1.61912610e+03, 1619., 1618., 1618., 1618., 1.61801587e+03, 1618., 1618., 1618., 1618., 1618., 1618., 1618., 1618., 1618., 1.61794360e+03, 1.61296887e+03, 1618., 1618., 1618., 1618., 1618., 1.61234814e+03, 1.61101245e+03, 1.61319995e+03, 1611., 1611., 1.61105469e+03, 1.61105469e+03, 1.61799951e+03, 1.61799951e+03, 1618., 1.61915625e+03, 1622., 1.61942700e+03, 1.61912720e+03, 1626., 1626., 1.62162305e+03, 1.62487390e+03, 1626., 1626., 1.62587500e+03, 1626., 1.62484180e+03, 1626., 1626., 1.62596875e+03, 1.62596875e+03, 1.61964087e+03, 1.62000293e+03, 1.62000281e+03, 1.62156531e+03, 1.61800208e+03, 1.61800208e+03, 1.62557031e+03, 1.62556885e+03, 1.62200598e+03, 1626., 1.62357031e+03, 1626., 1626., 1626., 1626., 1626., 1626., 1626., 1626., 1626., 1626., 1626., 1.62251367e+03, 1.61800195e+03, 1618., 1618., 1622., 1618., 1618., 1618., 1618., 1618., 1618., 1618., 1618., 1618., 1.61850024e+03, 1618., 1.61800024e+03, 1618., 1618., 1618., 1618., 1618., 1618., 1.62599182e+03, 1618., 1.62549963e+03, 1618., 1.61806250e+03, 1618., 1618., 1618., 1618., 1618., 1618., 1618., 1.61448633e+03, 1618., 1618., 1618., 1618., 1618., 1618., 1618., 1618., 1618., 1.61800012e+03, 1.62400232e+03, 1.62514697e+03, 1.62570728e+03, 1.61800391e+03, 1.61800977e+03, 1626., 1626., 1626., 1626., 1.62598438e+03, 1626., 1.61866724e+03, 1618., 1618., 1618., 1618., 1621., 1.62522632e+03, 1618., 1626., 1626., 1626., 1626., 1.61806250e+03, 1.61958887e+03, 1.61950000e+03, 1.61950000e+03, 1618., 1.61950000e+03, 1.62570178e+03, 1626., 1626., 1.62372510e+03, 1618., 1618., 1618., 1618., 1618., 1618., 1618., 1618., 1618., 1618., 1.62599951e+03, 1626., 1626., 1626., 1626., 1626., 1626., 1626., 1626., 1626., 1626., 1626., 1626., 1626., 1626., 1626., 1626., 1626., 1626.,
       1.62663525e+03, 1.62659497e+03, 1.62657349e+03, 1.63403308e+03, 1.63458057e+03, 1641., 1641., 1641., 1641., 1641., 1641., 1.63762244e+03, 1.63400012e+03, 1.63400012e+03, 1.63375000e+03, 1.63000635e+03, 1626., 1626., 1626., 1626., 1626., 1626., 1626., 1.63203125e+03, 1634., 1.63399854e+03, 1634., 1634., 1634., 1.63405469e+03, 1634., 1.63405469e+03, 1634., 1634., 1.63399988e+03, 1.63547668e+03, 1.63550439e+03, 1.63454688e+03, 1634., 1626., 1.62684436e+03, 1.62628125e+03, 1.63199976e+03, 1626., 1626., 1626., 1.62600024e+03, 1.62731348e+03, 1626., 1.63396875e+03, 1.62796875e+03, 1.62645996e+03, 1.62625073e+03, 1.63396875e+03, 1626., 1.62577344e+03, 1.62600061e+03, 1.62593750e+03, 1.62480469e+03, 1618., 1.61850000e+03, 1618., 1.62543726e+03, 1.62599976e+03, 1.62543469e+03, 1618., 1618., 1618., 1618., 1618., 1618., 1618., 1618., 1.61800024e+03, 1618., 1.61800049e+03, 1618., 1618., 1618., 1618., 1618., 1618., 1618., 1618., 1.61471887e+03, 1618., 1618., 1618., 1.61603113e+03, 1.61450000e+03, 1611., 1.61320068e+03, 1.61320093e+03, 1611., 1611., 1.61108203e+03, 1.61294153e+03, 1.61799951e+03, 1.61812451e+03, 1.61809375e+03, 1.61859766e+03, 1.62199780e+03, 1.61860156e+03, 1.62599219e+03, 1626., 1626., 1.62186621e+03, 1.62560840e+03, 1626., 1.62585938e+03, 1.62085840e+03, 1626., 1618., 1618., 1.62070312e+03, 1618., 1618., 1618., 1618., 1.61900195e+03, 1.62557031e+03, 1.61800208e+03, 1618., 1.62306958e+03, 1.62571875e+03, 1.62200208e+03, 1626., 1.62395312e+03, 1626., 1626., 1626., 1626., 1626., 1626., 1626., 1626., 1626., 1626., 1626., 1.62399951e+03, 1.62399951e+03, 1618., 1.62256250e+03, 1.62251392e+03, 1618., 1618., 1618., 1618., 1618., 1618., 1618., 1618., 1618., 1618., 1618., 1.61862793e+03, 1.61970605e+03, 1.61800232e+03, 1.61800220e+03, 1.62599207e+03, 1.62206494e+03, 1618., 1.62248779e+03, 1.62206250e+03, 1.62248779e+03, 1618., 1.61806250e+03, 1618., 1618., 1618., 1618., 1618., 1618., 1618., 1.61439062e+03, 1618., 1618., 1618., 1618., 1618., 1618., 1618., 1618., 1618., 1618., 1.62420422e+03, 1618., 1618., 1.62201367e+03, 1.62200977e+03, 1626., 1626., 1626., 1626., 1626., 1626., 1.62598438e+03, 1618., 1618., 1618., 1618., 1618., 1618., 1618., 1626., 1626., 1626., 1626., 1626., 1626., 1.62599609e+03, 1626., 1618., 1.62350989e+03, 1.62350256e+03, 1.62256323e+03, 1.62200452e+03, 1618., 1618., 1618., 1618., 1618., 1618., 1618., 1618., 1618., 1618., 1618., 1.62599951e+03, 1626., 1626., 1626., 1626., 1626., 1626., 1626., 1626., 1626., 1626., 1626., 1626., 1626., 1626., 1626., 1626., 1626., 1626.,
       1626., 1.62298474e+03, 1.62496912e+03, 1.62608203e+03, 1.63413904e+03, 1641., 1641., 1641., 1.63925000e+03, 1641., 1.63903125e+03, 1.63750439e+03, 1.63400012e+03, 1.63375012e+03, 1.63168750e+03, 1.63000635e+03, 1626., 1.62600037e+03, 1.63100073e+03, 1.63100024e+03, 1626., 1626., 1626., 1.63335547e+03, 1634., 1.62600012e+03, 1.63270947e+03, 1.63275000e+03, 1.63223621e+03, 1634., 1.62824988e+03, 1634., 1.63375000e+03, 1634., 1.63399988e+03, 1.63549805e+03, 1.63924634e+03, 1.63542200e+03, 1.63443762e+03, 1.63199524e+03, 1.63199976e+03, 1.63099976e+03, 1634., 1.63135938e+03, 1.62734668e+03, 1626., 1.62732520e+03, 1.62731348e+03, 1626., 1.62733594e+03, 1.62625293e+03, 1.62825684e+03, 1.62600049e+03, 1.62625293e+03, 1626., 1.62165625e+03, 1.63376562e+03, 1626., 1626., 1.62288135e+03, 1.62496851e+03, 1.62003125e+03, 1.62593726e+03, 1.62543628e+03, 1.61803125e+03, 1618., 1618., 1618., 1618., 1618., 1618., 1618., 1618., 1618., 1618., 1618., 1618., 1618., 1618., 1618., 1618., 1618., 1618., 1618., 1.61734766e+03, 1618., 1618., 1618., 1618., 1618., 1.61444519e+03, 1.61236365e+03, 1.61116394e+03, 1611., 1611., 1611., 1611., 1.61799951e+03, 1.61799951e+03, 1619., 1.61920703e+03, 1.61999023e+03, 1.61933203e+03, 1.62199951e+03, 1.62199829e+03, 1.62099878e+03, 1618., 1618., 1618., 1618., 1618., 1.62098438e+03, 1618., 1620., 1.62070312e+03, 1.61900049e+03, 1618., 1618., 1618., 1618., 1618., 1618., 1618., 1618., 1.61900195e+03, 1618., 1.62531567e+03, 1618., 1.61906250e+03, 1.62545703e+03, 1.62145447e+03, 1.62599756e+03, 1.62596826e+03, 1626., 1626., 1626., 1626., 1624., 1626., 1626., 1626., 1.62206445e+03, 1.62218945e+03, 1.62200195e+03, 1618., 1618., 1618., 1618., 1618., 1618., 1618., 1618., 1618., 1618., 1618., 1.61850037e+03, 1.61800024e+03, 1618., 1.61800232e+03, 1.62200366e+03, 1.61800195e+03, 1618., 1.62206445e+03, 1618., 1.61806250e+03, 1618., 1618., 1618., 1618., 1618., 1618., 1618., 1618., 1618., 1618., 1618., 1618., 1618., 1618., 1618., 1618., 1618., 1618., 1618., 1618., 1618., 1618., 1618., 1.61800391e+03, 1.61800781e+03, 1.62454639e+03, 1626., 1626., 1626., 1626., 1626., 1.62598438e+03, 1618., 1618., 1618., 1618., 1618., 1618., 1618., 1626., 1626., 1626., 1626., 1626., 1.62575000e+03, 1.62169043e+03, 1.62571277e+03, 1618., 1618., 1618., 1618., 1618., 1618., 1618., 1618., 1618., 1618., 1618., 1618., 1618., 1618., 1618., 1618., 1.62599951e+03, 1626., 1626., 1626., 1626., 1626., 1626., 1626., 1626., 1626., 1626., 1626., 1626., 1626., 1626., 1626., 1.62149756e+03, 1626., 1626.,
       1.61996997e+03, 1.61846899e+03, 1.61846924e+03, 1.61975317e+03, 1.63397656e+03, 1.63413953e+03, 1.63836816e+03, 1.63903125e+03, 1.63853906e+03, 1.63897656e+03, 1.63754028e+03, 1.63400012e+03, 1634., 1.63168750e+03, 1.63017188e+03, 1.62600037e+03, 1626., 1.62603149e+03, 1.63003247e+03, 1.63000024e+03, 1626., 1626., 1.62603125e+03, 1.63218555e+03, 1634., 1.62601965e+03, 1634., 1633., 1.63298828e+03, 1634., 1634., 1634., 1634., 1.63870862e+03, 1.63915295e+03, 1.63925000e+03, 1641., 1.63691797e+03, 1.63559827e+03, 1.62799341e+03, 1.63199341e+03, 1.63199927e+03, 1.62781262e+03, 1626., 1626., 1626., 1626., 1626., 1626., 1.62700281e+03, 1.62725293e+03, 1.62600244e+03, 1626., 1.62600049e+03, 1.62189062e+03, 1.61800049e+03, 1.62600049e+03, 1.62275757e+03, 1.62262891e+03, 1.62275342e+03, 1.62499976e+03, 1.62065625e+03, 1.62593726e+03, 1.62593726e+03, 1618., 1618., 1618., 1618., 1618., 1619., 1618., 1618., 1.61814087e+03, 1.62320947e+03, 1.61814258e+03, 1626., 1.62587500e+03, 1618., 1618., 1618., 1618., 1618., 1618., 1618., 1.61754199e+03, 1618., 1618., 1618., 1618., 1618., 1.61799988e+03, 1611., 1.61100806e+03, 1611., 1611., 1.61105469e+03, 1611., 1.61799951e+03, 1.61799951e+03, 1.61956836e+03, 1.61970898e+03, 1.62599121e+03, 1.61883398e+03, 1618., 1.62186572e+03, 1.62099097e+03, 1.61800586e+03, 1618., 1618., 1618., 1618., 1.62192139e+03, 1.61875732e+03, 1.62164026e+03, 1626., 1626., 1.61950732e+03, 1.62396875e+03, 1.61957788e+03, 1.61950659e+03, 1.61800391e+03, 1618., 1618., 1618., 1.62101025e+03, 1618., 1.62125220e+03, 1618., 1619., 1.62145703e+03, 1.61931250e+03, 1618., 1618., 1626., 1626., 1626., 1626., 1624., 1626., 1626., 1626., 1.62321021e+03, 1.62268945e+03, 1.62262720e+03, 1.61800195e+03, 1618., 1618., 1618., 1618., 1618., 1618., 1618., 1618., 1618., 1618., 1618., 1618., 1618., 1618., 1618., 1618., 1618., 1618., 1618., 1618., 1618., 1618., 1618., 1618., 1618., 1618., 1618., 1618., 1618., 1618., 1618., 1618., 1618., 1618., 1618., 1618., 1618., 1618., 1618., 1618., 1618., 1618., 1618., 1618., 1618., 1.61851416e+03, 1626., 1626., 1626., 1626., 1.62575000e+03, 1.61800195e+03, 1618., 1618., 1618., 1618., 1618., 1618., 1618., 1.61812549e+03, 1626., 1626., 1626., 1626., 1.61801562e+03, 1.61850000e+03, 1.61950000e+03, 1618., 1618., 1618., 1618., 1618., 1618., 1618., 1618., 1618., 1618., 1618., 1618., 1618., 1618., 1618., 1618., 1.62599951e+03, 1626., 1626., 1626., 1626., 1626., 1626., 1626., 1626., 1626., 1626., 1626., 1626., 1626., 1626., 1626., 1.62003137e+03, 1626., 1626.,
       1.62398022e+03, 1.61840649e+03, 1.61828125e+03, 1.61806274e+03, 1.62197168e+03, 1.63410938e+03, 1641., 1.63903125e+03, 1.63853906e+03, 1.63765015e+03, 1.63764978e+03, 1634., 1634., 1.63350000e+03, 1.62600012e+03, 1626., 1.62599219e+03, 1.63276367e+03, 1.63318750e+03, 1.63316406e+03, 1626., 1626., 1.62603125e+03, 1.63003174e+03, 1.63368481e+03, 1.62601965e+03, 1634., 1634., 1634., 1.63945544e+03, 1634., 1.63968359e+03, 1.63769434e+03, 1641., 1.63924951e+03, 1641., 1641., 1.63924634e+03, 1.63570312e+03, 1.62799548e+03, 1.62799329e+03, 1626., 1626., 1626., 1626., 1626., 1626., 1.62606250e+03, 1626., 1.62422437e+03, 1.62600244e+03, 1626., 1626., 1.62596875e+03, 1.61825256e+03, 1.61466797e+03, 1.63025562e+03, 1.62048877e+03, 1.62499976e+03, 1.62048828e+03, 1.62023877e+03, 1618., 1.62443091e+03, 1.62599976e+03, 1.62203918e+03, 1618., 1618., 1618., 1618., 1.62164111e+03, 1.62064111e+03, 1.62564319e+03, 1.62546826e+03, 1.62396777e+03, 1.61801562e+03, 1626., 1626., 1618., 1618., 1618., 1618., 1618., 1618., 1618., 1618., 1618., 1618., 1618., 1618., 1618., 1.61323865e+03, 1611., 1611., 1.61101367e+03, 1611., 1.61105469e+03, 1611., 1.61799951e+03, 1.61899951e+03, 1.62599194e+03, 1.62599097e+03, 1.62599902e+03, 1.62586584e+03, 1.61856641e+03, 1.62056836e+03, 1.61800586e+03, 1618., 1618., 1618., 1618., 1618., 1.61800195e+03, 1.62192175e+03, 1626., 1626., 1626., 1.62596875e+03, 1626., 1626., 1.62584375e+03, 1.61900439e+03, 1618., 1618., 1618., 1.61901001e+03, 1618., 1618., 1618., 1618., 1.62131250e+03, 1619., 1618., 1618., 1.62596875e+03, 1.61808887e+03, 1.61800293e+03, 1.61807336e+03, 1.61800195e+03, 1626., 1626., 1626., 1.62574951e+03, 1.62218945e+03, 1.62599951e+03, 1.62371826e+03, 1.62256958e+03, 1618., 1618., 1618., 1618., 1618., 1618., 1618., 1618., 1618., 1618., 1618., 1618., 1618., 1618., 1618., 1618., 1618., 1618., 1618., 1618., 1618., 1.62206250e+03, 1618., 1.61806274e+03, 1.61806323e+03, 1618., 1618., 1618., 1618., 1618., 1618., 1618., 1618., 1618., 1618., 1618., 1618., 1618., 1618., 1618., 1618., 1618., 1618., 1618., 1618., 1.62254651e+03, 1626., 1.61850635e+03, 1.62253760e+03, 1.62155371e+03, 1618., 1618., 1618., 1618., 1618., 1618., 1618., 1618., 1618., 1626., 1626., 1626., 1.62599976e+03, 1618., 1.61800342e+03, 1.61800049e+03, 1618., 1618., 1618., 1618., 1618., 1618., 1618., 1618., 1618., 1618., 1618., 1618., 1618., 1618., 1618., 1618., 1.62599951e+03, 1626., 1626., 1626., 1626., 1626., 1626., 1626., 1626., 1626., 1626., 1626., 1626., 1626., 1.61811426e+03, 1624., 1.62581152e+03, 1626., 1626.,
       1.61887695e+03, 1618., 1618., 1.61862500e+03, 1.62599561e+03, 1634., 1.63410938e+03, 1634., 1634., 1634., 1634., 1634., 1.63350000e+03, 1.63237744e+03, 1626., 1.62442871e+03, 1.62846338e+03, 1.63400024e+03, 1.63350000e+03, 1634., 1.62600024e+03, 1626., 1.63003235e+03, 1.63368555e+03, 1634., 1.62601965e+03, 1634., 1634., 1634., 1634., 1634., 1634., 1.63750439e+03, 1.63757275e+03, 1.63400366e+03, 1.63924976e+03, 1.63925000e+03, 1.63499133e+03, 1634., 1.62799353e+03, 1.62697693e+03, 1626., 1626., 1624., 1.62398438e+03, 1620., 1626., 1626., 1.61944434e+03, 1.62596875e+03, 1626., 1.62600049e+03, 1626., 1.62195312e+03, 1.62088281e+03, 1.61800635e+03, 1626., 1626., 1625., 1625., 1.62499976e+03, 1.61800439e+03, 1.62429297e+03, 1.62599976e+03, 1.62416516e+03, 1618., 1618., 1618., 1618., 1618., 1618., 1.61826404e+03, 1.62340527e+03, 1.61938916e+03, 1618., 1626., 1626., 1618., 1618., 1618., 1618., 1618., 1618., 1618., 1618., 1618., 1618., 1618., 1618., 1618., 1618., 1.61679395e+03, 1.61277100e+03, 1.61105469e+03, 1611., 1.61280469e+03, 1611., 1.61799951e+03, 1.61799951e+03, 1.61994336e+03, 1.61800391e+03, 1.61831641e+03, 1.61806641e+03, 1618., 1618., 1618., 1618., 1618., 1618., 1618., 1618., 1618., 1.61825195e+03, 1622., 1.62198438e+03, 1626., 1.61983557e+03, 1626., 1626., 1.62596875e+03, 1.61900439e+03, 1618., 1618., 1618., 1.61800012e+03, 1618., 1618., 1618., 1618., 1618., 1618., 1618., 1618., 1.62596875e+03, 1.61909326e+03, 1.61802637e+03, 1.62596875e+03, 1.61852539e+03, 1626., 1.62199609e+03, 1618., 1.62199805e+03, 1.62019543e+03, 1.61819543e+03, 1.61871106e+03, 1.61861621e+03, 1618., 1618., 1618., 1618., 1618., 1618., 1618., 1618., 1618., 1618., 1618., 1618., 1618., 1618., 1618., 1618., 1618., 1618., 1618., 1618., 1.62306250e+03, 1.62587500e+03, 1626., 1.61922461e+03, 1.61906836e+03, 1.61800049e+03, 1618., 1618., 1618., 1.61801562e+03, 1618., 1618., 1618., 1618., 1618., 1618., 1618., 1618., 1618., 1618., 1618., 1618., 1618., 1618., 1618., 1.61850586e+03, 1626., 1.62250732e+03, 1.61850586e+03, 1.61800195e+03, 1618., 1618., 1618., 1618., 1618., 1618., 1618., 1618., 1618., 1.62200049e+03, 1625., 1626., 1.62202209e+03, 1618., 1618., 1618., 1618., 1618., 1618., 1618., 1618., 1618., 1618., 1618., 1618., 1618., 1618., 1618., 1618., 1618., 1618., 1618., 1.62599951e+03, 1626., 1626., 1626., 1626., 1626., 1626., 1626., 1626., 1626., 1626., 1.62598438e+03, 1626., 1.61986719e+03, 1.62003125e+03, 1626., 1626., 1626., 1626.,
       1.62499121e+03, 1.61850000e+03, 1.61800391e+03, 1.62050488e+03, 1.62599609e+03, 1.62964551e+03, 1634., 1634., 1634., 1634., 1634., 1.62638306e+03, 1.62612512e+03, 1626., 1626., 1.62446094e+03, 1.62599438e+03, 1.63400024e+03, 1634., 1634., 1.63000171e+03, 1.63003210e+03, 1.62603149e+03, 1.63373438e+03, 1.63118530e+03, 1626., 1634., 1634., 1634., 1634., 1634., 1634., 1634., 1.63418213e+03, 1.63400439e+03, 1.63679785e+03, 1.63924634e+03, 1.63924634e+03, 1.63548340e+03, 1.63504590e+03, 1.63217090e+03, 1.62697668e+03, 1626., 1626., 1626., 1622., 1622., 1.62375012e+03, 1618., 1.61850793e+03, 1626., 1.62900049e+03, 1626., 1626., 1626., 1.61800439e+03, 1626., 1626., 1626., 1.62599976e+03, 1626., 1.62599963e+03, 1626., 1626., 1.62599976e+03, 1.62508899e+03, 1618., 1618., 1618., 1618., 1618., 1.62146777e+03, 1.62571826e+03, 1.62224182e+03, 1.62200012e+03, 1.62200793e+03, 1.62325000e+03, 1618., 1618., 1618., 1618., 1618., 1.62269995e+03, 1618., 1618., 1618., 1618., 1618., 1618., 1618., 1618., 1.61701379e+03, 1.61668555e+03, 1.61686670e+03, 1.61275000e+03, 1.61634619e+03, 1611., 1.62199951e+03, 1.61799951e+03, 1.62233557e+03, 1.61800391e+03, 1.62225635e+03, 1.62233447e+03, 1618., 1618., 1618., 1618., 1618., 1618., 1618., 1618., 1618., 1618., 1.61800195e+03, 1618., 1.61875439e+03, 1.61800439e+03, 1624., 1626., 1.62596875e+03, 1.62301233e+03, 1618., 1618., 1618., 1618., 1618., 1618., 1618., 1618., 1618., 1618., 1618., 1618., 1626., 1.61808887e+03, 1.61908887e+03, 1626., 1626., 1626., 1.62199609e+03, 1.61804285e+03, 1626., 1626., 1.62199402e+03, 1.61861035e+03, 1618., 1618., 1618., 1618., 1618., 1618., 1618., 1618., 1618., 1618., 1618., 1.61912500e+03, 1618., 1618., 1618., 1618., 1618., 1618., 1618., 1618., 1618., 1.61906421e+03, 1626., 1.62575000e+03, 1626., 1.62598438e+03, 1.61800146e+03, 1618., 1618., 1618., 1618., 1618., 1618., 1618., 1618., 1618., 1618., 1618., 1618., 1618., 1618., 1618., 1618., 1.62063098e+03, 1.61850195e+03, 1.61850208e+03, 1626., 1626., 1626., 1.62575000e+03, 1.62153833e+03, 1618., 1618., 1618., 1618., 1618., 1618., 1618., 1618., 1618., 1.61800049e+03, 1.62299976e+03, 1.62499976e+03, 1.61800049e+03, 1618., 1618., 1618., 1618., 1618., 1618., 1611., 1.61788550e+03, 1618., 1618., 1618., 1618., 1.61698804e+03, 1611., 1.61324194e+03, 1.61100342e+03, 1618., 1618., 1618., 1.62599951e+03, 1626., 1626., 1626., 1626., 1626., 1626., 1626., 1626., 1626., 1626., 1.61884717e+03, 1.62579688e+03, 1.61984375e+03, 1618., 1626., 1626., 1626., 1626.,
       1.62597620e+03, 1.61850000e+03, 1.62050000e+03, 1.62050000e+03, 1.62509766e+03, 1.62574609e+03, 1.62320068e+03, 1.62094800e+03, 1.62598352e+03, 1.62600879e+03, 1.63113965e+03, 1.62449902e+03, 1.62600024e+03, 1.62600012e+03, 1.62587500e+03, 1.62000439e+03, 1.63239062e+03, 1.63402759e+03, 1634., 1634., 1626., 1.63003198e+03, 1.63016199e+03, 1.63401367e+03, 1.63393726e+03, 1.62600391e+03, 1634., 1634., 1634., 1.63399805e+03, 1.63299609e+03, 1.62648535e+03, 1.62614062e+03, 1.63400684e+03, 1.62800269e+03, 1.63000659e+03, 1.63304565e+03, 1.63499121e+03, 1.63499121e+03, 1.63417090e+03, 1.63417090e+03, 1.63099756e+03, 1.62600781e+03, 1626., 1626., 1.62149609e+03, 1.62550000e+03, 1.62549988e+03, 1618., 1.62100269e+03, 1626., 1.62900073e+03, 1626., 1626., 1626., 1.61914844e+03, 1626., 1626., 1626., 1.62599976e+03, 1626., 1.62599963e+03, 1626., 1626., 1.62599976e+03, 1.62587024e+03, 1618., 1618., 1618., 1618., 1618., 1.61801562e+03, 1.62520911e+03, 1.62345984e+03, 1618., 1.61800781e+03, 1.62313770e+03, 1.62200793e+03, 1618., 1618., 1618., 1618., 1.62599707e+03, 1618., 1618., 1618., 1618., 1618., 1618., 1618., 1618., 1618., 1618., 1.61682202e+03, 1.61636377e+03, 1.61635059e+03, 1.61625012e+03, 1.62427234e+03, 1.62427124e+03, 1626., 1.61800598e+03, 1.62449121e+03, 1.62236584e+03, 1.62586597e+03, 1.61800244e+03, 1618., 1.61800195e+03, 1618., 1618., 1618., 1618., 1618., 1618., 1618., 1618., 1618., 1618., 1618., 1.61825439e+03, 1.62384167e+03, 1618., 1618., 1618., 1618., 1618., 1618., 1618., 1618., 1618., 1618., 1618., 1618., 1618., 1.61907812e+03, 1618., 1618., 1.61818750e+03, 1618., 1626., 1626., 1.62599609e+03, 1626., 1626., 1622., 1.61803320e+03, 1618., 1618., 1618., 1618., 1618., 1618., 1618., 1618., 1618., 1618., 1618., 1618., 1618., 1618., 1618., 1618., 1618., 1618., 1618., 1618., 1618., 1.61906299e+03, 1626., 1.62572656e+03, 1.62160144e+03, 1.62572656e+03, 1618., 1618., 1618., 1618., 1618., 1618., 1618., 1618., 1618., 1618., 1618., 1618., 1618., 1618., 1618., 1618., 1618., 1618., 1618., 1618., 1.62363171e+03, 1.62368738e+03, 1.61800195e+03, 1.61800195e+03, 1618., 1618., 1618., 1618., 1618., 1618., 1618., 1618., 1618., 1618., 1.61928125e+03, 1.62428687e+03, 1.62141394e+03, 1618., 1618., 1618., 1618., 1618., 1618., 1.61794531e+03, 1611., 1.61294141e+03, 1.61294141e+03, 1618., 1618., 1618., 1.61129907e+03, 1611., 1611., 1611., 1618., 1618., 1618., 1.62599951e+03, 1626., 1626., 1626., 1626., 1626., 1626., 1626., 1626., 1626., 1626., 1.61878125e+03, 1.61999951e+03, 1.61825000e+03, 1620., 1.62006250e+03, 1626., 1626., 1626.,
       1.62578857e+03, 1618., 1.61850049e+03, 1618., 1.62510547e+03, 1.62023047e+03, 1.62044336e+03, 1.61875281e+03, 1.61843958e+03, 1.62907031e+03, 1.62550000e+03, 1.62020215e+03, 1.62600024e+03, 1.62600830e+03, 1.62600830e+03, 1.62005151e+03, 1.63300439e+03, 1.63750122e+03, 1634., 1634., 1.63016162e+03, 1.63016187e+03, 1.62600098e+03, 1634., 1.63015820e+03, 1.62600098e+03, 1634., 1634., 1634., 1.63298828e+03, 1633., 1.62615674e+03, 1.62645569e+03, 1.63594031e+03, 1.62761829e+03, 1.63000659e+03, 1.62620422e+03, 1.63165063e+03, 1.63113306e+03, 1.63124341e+03, 1.63097681e+03, 1.62600012e+03, 1.61847693e+03, 1618., 1.62549902e+03, 1.62149902e+03, 1.62149487e+03, 1.61900073e+03, 1618., 1.61900220e+03, 1.62528125e+03, 1626., 1626., 1.62151562e+03, 1.61800049e+03, 1.61800439e+03, 1626., 1626., 1626., 1.62600757e+03, 1.62600977e+03, 1.62599963e+03, 1626., 1626., 1.62373254e+03, 1.62573303e+03, 1618., 1618., 1618., 1618., 1.62596082e+03, 1.62599207e+03, 1626., 1.61919751e+03, 1618., 1.61800781e+03, 1.62313281e+03, 1.62313782e+03, 1618., 1618., 1618., 1618., 1618., 1618., 1618., 1618., 1618., 1618., 1618., 1618., 1618., 1618., 1618., 1618., 1618., 1618., 1618., 1.62599951e+03, 1.62599951e+03, 1626., 1626., 1626., 1.62587500e+03, 1.61805322e+03, 1618., 1618., 1618., 1618., 1618., 1618., 1618., 1618., 1618., 1618., 1618., 1618., 1618., 1618., 1618., 1.62200049e+03, 1618., 1618., 1618., 1618., 1618., 1618., 1618., 1618., 1618., 1618., 1618., 1618., 1618., 1618., 1618., 1618., 1618., 1618., 1.61800195e+03, 1.62199597e+03, 1.61931274e+03, 1.61998047e+03, 1.61943774e+03, 1.62034497e+03, 1618., 1618., 1618., 1618., 1618., 1618., 1618., 1618., 1618., 1618., 1618., 1618., 1618., 1618., 1618., 1618., 1618., 1618., 1618., 1.62106653e+03, 1618., 1.61806250e+03, 1.62510144e+03, 1626., 1.62575000e+03, 1.62572449e+03, 1.62412671e+03, 1618., 1618., 1618., 1618., 1618., 1618., 1618., 1618., 1618., 1618., 1618., 1618., 1618., 1618., 1618., 1.62137549e+03, 1618., 1618., 1618., 1618., 1618., 1618., 1618., 1618., 1618., 1.61800195e+03, 1.61800195e+03, 1.61850586e+03, 1618., 1618., 1618., 1618., 1618., 1618., 1.62184412e+03, 1.62549207e+03, 1.62242554e+03, 1.61825000e+03, 1618., 1618., 1618., 1618., 1618., 1618., 1611., 1611., 1611., 1611., 1.61123242e+03, 1618., 1611., 1611., 1.61147559e+03, 1.61147559e+03, 1618., 1618., 1618., 1.62599951e+03, 1626., 1626., 1626., 1626., 1626., 1626., 1626., 1626., 1626., 1.61878223e+03, 1.61878125e+03, 1.61828125e+03, 1.62587427e+03, 1626., 1626., 1626., 1626., 1626.,
       1620., 1618., 1618., 1618., 1618., 1618., 1618., 1.61812500e+03, 1.61812695e+03, 1626., 1626., 1.62549902e+03, 1626., 1.62600037e+03, 1.62600818e+03, 1618., 1.63701416e+03, 1.63753186e+03, 1.63763770e+03, 1634., 1.63016211e+03, 1.63016406e+03, 1.62615784e+03, 1.63266406e+03, 1.62600146e+03, 1.62593750e+03, 1626., 1634., 1.63399976e+03, 1.63398828e+03, 1634., 1634., 1634., 1.63703491e+03, 1.63702124e+03, 1.63400684e+03, 1.62738550e+03, 1.62600781e+03, 1.62613281e+03, 1.62663354e+03, 1.62600793e+03, 1625., 1.61800781e+03, 1618., 1.62124512e+03, 1.62550000e+03, 1.62150000e+03, 1.62546362e+03, 1.61900049e+03, 1.62100269e+03, 1.62549609e+03, 1626., 1.62199609e+03, 1618., 1618., 1.61800439e+03, 1.62001465e+03, 1626., 1626., 1.62604346e+03, 1.62624463e+03, 1626., 1626., 1626., 1.62371387e+03, 1.62371875e+03, 1618., 1618., 1.61778101e+03, 1618., 1618., 1.62371606e+03, 1.62524084e+03, 1.62307056e+03, 1618., 1.61900781e+03, 1.62313416e+03, 1.61800781e+03, 1618., 1618., 1618., 1618., 1618., 1618., 1618., 1618., 1618., 1618., 1618., 1618., 1618., 1618., 1618., 1618., 1618., 1618., 1618., 1.62599951e+03, 1.62599951e+03, 1626., 1626., 1626., 1.62237451e+03, 1.61800195e+03, 1618., 1618., 1618., 1618., 1618., 1618., 1618., 1618., 1618., 1618., 1618., 1618., 1618., 1618., 1618., 1618., 1618., 1618., 1618., 1618., 1618., 1618., 1618., 1618., 1618., 1618., 1618., 1618., 1618., 1618., 1618., 1618., 1618., 1618., 1618., 1.61868945e+03, 1618., 1.62199976e+03, 1622., 1.61875000e+03, 1618., 1618., 1618., 1618., 1618., 1618., 1618., 1618., 1618., 1618., 1618., 1618., 1618., 1618., 1618., 1618., 1618., 1618., 1620., 1620., 1.62585925e+03, 1626., 1626., 1626., 1626., 1626., 1626., 1.62212646e+03, 1618., 1618., 1618., 1618., 1618., 1618., 1618., 1.62572644e+03, 1.62219373e+03, 1618., 1.62221912e+03, 1618., 1618., 1618., 1.62546960e+03, 1618., 1618., 1618., 1618., 1618., 1618., 1618., 1618., 1618., 1618., 1618., 1.61800098e+03, 1618., 1618., 1618., 1618., 1618., 1618., 1618., 1.62537488e+03, 1.61828125e+03, 1618., 1618., 1618., 1.61778125e+03, 1618., 1.61417188e+03, 1.61411548e+03, 1611., 1611., 1611., 1611., 1611., 1611., 1.61144434e+03, 1.61144543e+03, 1.61176538e+03, 1.61147485e+03, 1.61362488e+03, 1618., 1618., 1.62599951e+03, 1626., 1626., 1626., 1626., 1626., 1626., 1626., 1.62599951e+03, 1.61880981e+03, 1.61828125e+03, 1618., 1618., 1.61981226e+03, 1624., 1.61985437e+03, 1.61998425e+03, 1626., 1626.,
       1.62562085e+03, 1618., 1618., 1618., 1618., 1618., 1618., 1.61812598e+03, 1.62212769e+03, 1626., 1626., 1626., 1626., 1626., 1.62600024e+03, 1.62412402e+03, 1.62600806e+03, 1.62600806e+03, 1.63740479e+03, 1.63349988e+03, 1.63017932e+03, 1.63292969e+03, 1.63292969e+03, 1.63216211e+03, 1.62612646e+03, 1626., 1.62613086e+03, 1.63375171e+03, 1.63318665e+03, 1.63018738e+03, 1634., 1634., 1634., 1634., 1634., 1.62921741e+03, 1.62600049e+03, 1626., 1626., 1626., 1626., 1.61869568e+03, 1.61800781e+03, 1618., 1.62546387e+03, 1.62549609e+03, 1.62550000e+03, 1.62508081e+03, 1.61900049e+03, 1.62549487e+03, 1.62550000e+03, 1626., 1626., 1626., 1.61802820e+03, 1626., 1626., 1626., 1626., 1.62613672e+03, 1626., 1626., 1.62574976e+03, 1.62575000e+03, 1.61865039e+03, 1.61965039e+03, 1618., 1618., 1618., 1618., 1618., 1618., 1.61801758e+03, 1618., 1618., 1618., 1618., 1618., 1618., 1618., 1618., 1618., 1618., 1618., 1618., 1618., 1618., 1618., 1618., 1618., 1618., 1618., 1618., 1.61799316e+03, 1.61774707e+03, 1618., 1618., 1.62599951e+03, 1.62599951e+03, 1626., 1626., 1626., 1.61803369e+03, 1618., 1618., 1618., 1618., 1618., 1618., 1618., 1618., 1618., 1618., 1618., 1618., 1618., 1618., 1618., 1618., 1618., 1618., 1618., 1618., 1618., 1618., 1618., 1618., 1618., 1618., 1618., 1618., 1618., 1618., 1618., 1618., 1618., 1618., 1618., 1618., 1618., 1618., 1622., 1622., 1.62081458e+03, 1618., 1618., 1618., 1618., 1618., 1618., 1618., 1618., 1618., 1618., 1618., 1618., 1618., 1618., 1618., 1618., 1618., 1618., 1618., 1618., 1.62506836e+03, 1.62572656e+03, 1626., 1626., 1.62122620e+03, 1.62572449e+03, 1.62462891e+03, 1618., 1618., 1618., 1618., 1618., 1618., 1618., 1618., 1.62260071e+03, 1.61800195e+03, 1618., 1.62222168e+03, 1618., 1618., 1622., 1.62591382e+03, 1618., 1618., 1618., 1618., 1618., 1618., 1618., 1618., 1618., 1618., 1618., 1.62568701e+03, 1.61804102e+03, 1618., 1618., 1618., 1618., 1618., 1618., 1.61834375e+03, 1618., 1618., 1618., 1618., 1618., 1618., 1.61778125e+03, 1.61417188e+03, 1611., 1.61787622e+03, 1611., 1611., 1611., 1.61116406e+03, 1.61100769e+03, 1.61100793e+03, 1.61712488e+03, 1618., 1618., 1618., 1618., 1.62599951e+03, 1626., 1626., 1626., 1626., 1626., 1626., 1626., 1.62480518e+03, 1.61880493e+03, 1618., 1618., 1618., 1.62587500e+03, 1626., 1.62387451e+03, 1624., 1626., 1626.,
       1.62587500e+03, 1618., 1.61800049e+03, 1.61800012e+03, 1618., 1618., 1618., 1.62212500e+03, 1.61812500e+03, 1.62612500e+03, 1626., 1626., 1.62612500e+03, 1626., 1.63375000e+03, 1.62713708e+03, 1634., 1.62998438e+03, 1634., 1634., 1.63267969e+03, 1634., 1634., 1.62966406e+03, 1.62600146e+03, 1626., 1626., 1.62600098e+03, 1626., 1.62042163e+03, 1626., 1626., 1626., 1.62821729e+03, 1.62708069e+03, 1626., 1.62599902e+03, 1.62175000e+03, 1626., 1626., 1626., 1.62298145e+03, 1.62298328e+03, 1.62245203e+03, 1.62600024e+03, 1626., 1.62550000e+03, 1.62549976e+03, 1.62546460e+03, 1.62549512e+03, 1.62550000e+03, 1626., 1626., 1626., 1626., 1626., 1.62599707e+03, 1626., 1.63399951e+03, 1.63292151e+03, 1.62616846e+03, 1626., 1626., 1.62571875e+03, 1618., 1618., 1618., 1.61778125e+03, 1.61600061e+03, 1618., 1618., 1618., 1618., 1618., 1.61794531e+03, 1618., 1618., 1618., 1.61449304e+03, 1618., 1618., 1618., 1618., 1618., 1618., 1618., 1618., 1618., 1618., 1618., 1618., 1.61785645e+03, 1.61799316e+03, 1.61799292e+03, 1.61143762e+03, 1.61662598e+03, 1.61794531e+03, 1.62368506e+03, 1.62200916e+03, 1.62305664e+03, 1.62199609e+03, 1.62081055e+03, 1.61803174e+03, 1618., 1618., 1618., 1618., 1.61783215e+03, 1.61838611e+03, 1618., 1618., 1618., 1618., 1618., 1618., 1618., 1.62200049e+03, 1618., 1618., 1.61800024e+03, 1618., 1618., 1618., 1618., 1618., 1618., 1618., 1618., 1618., 1618., 1618., 1618., 1618., 1618., 1618., 1618., 1618., 1618., 1618., 1618., 1618., 1.62193713e+03, 1.61875195e+03, 1618., 1618., 1618., 1618., 1618., 1618., 1611., 1.61100073e+03, 1.61109631e+03, 1618., 1618., 1618., 1618., 1618., 1618., 1618., 1618., 1618., 1618., 1618., 1618., 1618., 1.61906836e+03, 1.62306934e+03, 1.61806250e+03, 1618., 1618., 1618., 1618., 1618., 1618., 1618., 1618., 1618., 1618., 1618., 1618., 1618., 1618., 1.62472266e+03, 1.62472217e+03, 1.62572656e+03, 1.62572656e+03, 1.62574219e+03, 1618., 1618., 1618., 1618., 1618., 1618., 1618., 1618., 1618., 1618., 1618., 1.62592163e+03, 1626., 1618., 1618., 1618., 1618., 1618., 1618., 1618., 1618., 1618., 1618., 1618., 1.61778125e+03, 1618., 1.61778125e+03, 1.61417188e+03, 1611., 1.61592163e+03, 1611., 1611., 1611., 1611., 1.61100684e+03, 1.61147485e+03, 1.61799988e+03, 1618., 1618., 1618., 1618., 1.62599951e+03, 1626., 1626., 1626., 1626., 1626., 1.61930481e+03, 1.61936938e+03, 1618., 1618., 1618., 1.61803125e+03, 1.61830786e+03, 1626., 1626., 1624., 1626., 1626., 1626.,
       1626., 1.61925439e+03, 1.62574609e+03, 1.62072107e+03, 1.62068835e+03, 1618., 1618., 1618., 1618., 1626., 1.62593555e+03, 1626., 1.62600159e+03, 1.62600171e+03, 1634., 1.62601208e+03, 1634., 1.62663904e+03, 1634., 1634., 1.63052234e+03, 1.63399219e+03, 1.63267969e+03, 1.62612549e+03, 1.62600049e+03, 1626., 1.62598438e+03, 1.62548438e+03, 1.62542188e+03, 1.61812842e+03, 1.62050000e+03, 1626., 1626., 1626., 1.62550000e+03, 1.62199292e+03, 1.61822656e+03, 1.62199902e+03, 1626., 1.62613281e+03, 1.62600793e+03, 1626., 1.62598438e+03, 1626., 1.63344824e+03, 1.62600049e+03, 1626., 1.62550000e+03, 1.62550000e+03, 1626., 1626., 1626., 1626., 1626., 1626., 1.62195984e+03, 1.62033252e+03, 1626., 1.62899438e+03, 1.63399951e+03, 1.62820117e+03, 1626., 1.62600781e+03, 1626., 1.61950000e+03, 1618., 1.61778125e+03, 1.61249011e+03, 1.61778125e+03, 1618., 1618., 1618., 1618., 1618., 1618., 1618., 1618., 1618., 1.61449304e+03, 1.61449316e+03, 1618., 1618., 1618., 1618., 1618., 1618., 1618., 1618., 1618., 1618., 1618., 1618., 1618., 1.61799316e+03, 1.61134473e+03, 1.61123364e+03, 1.61100146e+03, 1.61800073e+03, 1.61799976e+03, 1.62148596e+03, 1.62204724e+03, 1626., 1.61825000e+03, 1.61800024e+03, 1618., 1.61800391e+03, 1.61800024e+03, 1.61800024e+03, 1618., 1618., 1618., 1618., 1618., 1618., 1618., 1618., 1618., 1618., 1618., 1618., 1618., 1618., 1618., 1618., 1618., 1618., 1618., 1618., 1618., 1618., 1618., 1618., 1618., 1618., 1618., 1618., 1618., 1618., 1618., 1618., 1618., 1618., 1618., 1618., 1618., 1618., 1618., 1618., 1618., 1611., 1611., 1.61100049e+03, 1618., 1618., 1618., 1618., 1618., 1618., 1618., 1618., 1618., 1618., 1618., 1618., 1618., 1618., 1618., 1618., 1618., 1618., 1618., 1618., 1618., 1618., 1618., 1618., 1618., 1618., 1618., 1618., 1618., 1618., 1618., 1618., 1618., 1618., 1618., 1618., 1618., 1618., 1618., 1618., 1618., 1618., 1618., 1618., 1618., 1618., 1618., 1618., 1618., 1618., 1618., 1618., 1618., 1618., 1618., 1618., 1618., 1618., 1618., 1618., 1618., 1.61428040e+03, 1.61417102e+03, 1611., 1.61101416e+03, 1611., 1611., 1611., 1.61105469e+03, 1.61100342e+03, 1.61536108e+03, 1618., 1618., 1618., 1618., 1618., 1.62599951e+03, 1626., 1626., 1626., 1626., 1.62543311e+03, 1618., 1618., 1618., 1618., 1618., 1618., 1.62187500e+03, 1626., 1626., 1626., 1626., 1626., 1626.,
       1626., 1626., 1.62072168e+03, 1.62072107e+03, 1626., 1.62056677e+03, 1.61800024e+03, 1.61812634e+03, 1.61800195e+03, 1.62800098e+03, 1626., 1.62600049e+03, 1.62925000e+03, 1.62925000e+03, 1634., 1634., 1634., 1.62673438e+03, 1634., 1.63064746e+03, 1626., 1.63064844e+03, 1.62650488e+03, 1.62612549e+03, 1.62612549e+03, 1.62591406e+03, 1.62541406e+03, 1.62560938e+03, 1.62548438e+03, 1.61823315e+03, 1.62050000e+03, 1626., 1.62424878e+03, 1.62600195e+03, 1626., 1626., 1.62199890e+03, 1.62155713e+03, 1626., 1626., 1.62612500e+03, 1626., 1626., 1626., 1.63344812e+03, 1626., 1626., 1626., 1627., 1626., 1626., 1626., 1626., 1626., 1626., 1626., 1626., 1.62625000e+03, 1.63399951e+03, 1.63299951e+03, 1.62849915e+03, 1.62600781e+03, 1626., 1.61971729e+03, 1618., 1618., 1.61250366e+03, 1.61242542e+03, 1.61775391e+03, 1618., 1618., 1618., 1618., 1618., 1618., 1618., 1618., 1618., 1.61449304e+03, 1.61450000e+03, 1618., 1618., 1618., 1618., 1618., 1618., 1618., 1618., 1618., 1618., 1618., 1618., 1618., 1.61799316e+03, 1.61149219e+03, 1.61102759e+03, 1611., 1.61799976e+03, 1.61801538e+03, 1.62350000e+03, 1.62550000e+03, 1626., 1.62496094e+03, 1.62231824e+03, 1618., 1.61800574e+03, 1.61800012e+03, 1.61672681e+03, 1618., 1.61581763e+03, 1618., 1618., 1.62166846e+03, 1618., 1618., 1618., 1618., 1.61800024e+03, 1618., 1618., 1618., 1618., 1618., 1618., 1.61608569e+03, 1618., 1618., 1618., 1618., 1618., 1618., 1.61799976e+03, 1618., 1618., 1618., 1618., 1618., 1618., 1618., 1618., 1618., 1618., 1618., 1618., 1618., 1.61427344e+03, 1.61449231e+03, 1611., 1.61329431e+03, 1611., 1.61153052e+03, 1.61105615e+03, 1618., 1618., 1618., 1618., 1618., 1618., 1618., 1618., 1618., 1618., 1618., 1618., 1618., 1618., 1618., 1618., 1618., 1618., 1618., 1618., 1618., 1618., 1618., 1618., 1618., 1618., 1618., 1618., 1618., 1618., 1618., 1618., 1618., 1618., 1618., 1618., 1618., 1618., 1618., 1618., 1618., 1618., 1618., 1618., 1618., 1618., 1618., 1618., 1618., 1618., 1618., 1618., 1618., 1618., 1618., 1618., 1618., 1618., 1618., 1618., 1618., 1618., 1618., 1.61416760e+03, 1.61411121e+03, 1.61324133e+03, 1611., 1611., 1.61450000e+03, 1.61798633e+03, 1618., 1618., 1618., 1618., 1618., 1.61928906e+03, 1.62729248e+03, 1626., 1626., 1626., 1626., 1.62587500e+03, 1.62129688e+03, 1.62581152e+03, 1.61801562e+03, 1.62587500e+03, 1.62030005e+03, 1.62587500e+03, 1626., 1626., 1626., 1626., 1626., 1626., 1626.,
       1.62543420e+03, 1618., 1.61825391e+03, 1.62030127e+03, 1626., 1.62590430e+03, 1.61800012e+03, 1.62599805e+03, 1.62587500e+03, 1.62889185e+03, 1626., 1.62611084e+03, 1634., 1634., 1634., 1634., 1634., 1634., 1634., 1.62662500e+03, 1626., 1.62864465e+03, 1.62663135e+03, 1626., 1.62612549e+03, 1.62600049e+03, 1.62548438e+03, 1.62598486e+03, 1.62600049e+03, 1.62400049e+03, 1.62550000e+03, 1626., 1.62474902e+03, 1.63200598e+03, 1626., 1626., 1626., 1.62162390e+03, 1.62587500e+03, 1.62587500e+03, 1626., 1626., 1626., 1626., 1.63001001e+03, 1626., 1626., 1626., 1.63346265e+03, 1.62732031e+03, 1626., 1.62546387e+03, 1626., 1626., 1626., 1626., 1626., 1626., 1.62846497e+03, 1.62838281e+03, 1.62846094e+03, 1626., 1626., 1.61965259e+03, 1618., 1.61447266e+03, 1.61143750e+03, 1611., 1.61244043e+03, 1.61778125e+03, 1.61778125e+03, 1618., 1618., 1618., 1618., 1618., 1618., 1.61589441e+03, 1.61105469e+03, 1.61101025e+03, 1.61592175e+03, 1.61426062e+03, 1.61789062e+03, 1618., 1.61543640e+03, 1.61543298e+03, 1618., 1618., 1618., 1618., 1618., 1618., 1618., 1618., 1.61416138e+03, 1.61318701e+03, 1.61111157e+03, 1.61799976e+03, 1.62549951e+03, 1626., 1626., 1626., 1.62550000e+03, 1.62245581e+03, 1618., 1.62200012e+03, 1618., 1.61518872e+03, 1.61786328e+03, 1.61144165e+03, 1618., 1618., 1618., 1618., 1618., 1618., 1618., 1618., 1618., 1618., 1618., 1618., 1618., 1618., 1.61789062e+03, 1618., 1618., 1618., 1618., 1618., 1618., 1.61404883e+03, 1618., 1.61798633e+03, 1618., 1618., 1618., 1618., 1618., 1618., 1618., 1618., 1618., 1618., 1618., 1611., 1611., 1611., 1611., 1.61737085e+03, 1.61198779e+03, 1.61111279e+03, 1.61625000e+03, 1618., 1618., 1618., 1618., 1618., 1618., 1618., 1618., 1618., 1618., 1618., 1618., 1618., 1618., 1618., 1618., 1618., 1618., 1618., 1618., 1618., 1618., 1618., 1618., 1618., 1618., 1618., 1618., 1618., 1618., 1618., 1618., 1618., 1618., 1618., 1.61760986e+03, 1.61782886e+03, 1.61618835e+03, 1.61607886e+03, 1.61793835e+03, 1611., 1618., 1618., 1618., 1618., 1618., 1618., 1618., 1618., 1618., 1618., 1618., 1618., 1618., 1618., 1618., 1618., 1618., 1.61625000e+03, 1618., 1618., 1618., 1.61428040e+03, 1.61767102e+03, 1.61767188e+03, 1.61761719e+03, 1611., 1618., 1618., 1618., 1618., 1618., 1618., 1618., 1618., 1.62599951e+03, 1626., 1626., 1626., 1.62599634e+03, 1.61904688e+03, 1618., 1.62329712e+03, 1618., 1.62587500e+03, 1618., 1.62580078e+03, 1.62587500e+03, 1626., 1626., 1.62587500e+03, 1626., 1.61800171e+03, 1.62096289e+03,
       1.62199500e+03, 1.61825781e+03, 1.62139697e+03, 1.62592969e+03, 1626., 1.62592969e+03, 1.62327734e+03, 1.62596680e+03, 1626., 1.62625000e+03, 1626., 1626., 1.62612549e+03, 1.62638074e+03, 1634., 1634., 1634., 1.62699951e+03, 1632., 1.62651562e+03, 1626., 1.62552148e+03, 1.61848523e+03, 1626., 1.62612549e+03, 1626., 1.62319531e+03, 1.62347656e+03, 1.62600049e+03, 1.62392090e+03, 1626., 1626., 1.62587500e+03, 1626., 1.62408032e+03, 1.62006470e+03, 1.62498816e+03, 1.62001758e+03, 1.62486328e+03, 1.61875256e+03, 1.62587500e+03, 1.61875256e+03, 1.61986536e+03, 1626., 1626., 1.62600830e+03, 1626., 1.63244531e+03, 1634., 1.63348120e+03, 1626., 1626., 1626., 1626., 1626., 1.62599951e+03, 1.61833203e+03, 1.62599939e+03, 1.62631189e+03, 1.62838281e+03, 1.62630469e+03, 1.62595312e+03, 1626., 1.61865247e+03, 1618., 1.61450000e+03, 1.61249536e+03, 1.61249536e+03, 1618., 1618., 1618., 1618., 1618., 1619., 1618., 1.62300830e+03, 1618., 1618., 1.61545520e+03, 1.61592004e+03, 1618., 1.61778113e+03, 1618., 1618., 1.61776733e+03, 1618., 1618., 1.61799988e+03, 1618., 1.61755542e+03, 1618., 1.61450000e+03, 1.61450000e+03, 1.61449316e+03, 1611., 1611., 1611., 1.61799951e+03, 1.61926514e+03, 1.61945679e+03, 1.62345691e+03, 1626., 1.62225012e+03, 1618., 1618., 1618., 1618., 1.61761353e+03, 1.61581934e+03, 1.61584729e+03, 1.61794531e+03, 1.61772632e+03, 1618., 1618., 1618., 1618., 1.61800024e+03, 1.61800220e+03, 1618., 1618., 1618., 1618., 1.61789062e+03, 1618., 1.61787012e+03, 1618., 1618., 1618., 1618., 1618., 1618., 1618., 1618., 1.61338074e+03, 1618., 1.61794531e+03, 1618., 1618., 1618., 1618., 1618., 1618., 1618., 1618., 1.61251636e+03, 1611., 1611., 1.61187524e+03, 1.61187500e+03, 1.61187500e+03, 1611., 1611., 1618., 1618., 1618., 1618., 1618., 1.61798950e+03, 1618., 1618., 1.61799951e+03, 1.61799951e+03, 1618., 1.61264258e+03, 1.61614941e+03, 1618., 1618., 1618., 1618., 1618., 1618., 1618., 1618., 1618., 1618., 1618., 1618., 1618., 1618., 1618., 1618., 1618., 1618., 1618., 1618., 1618., 1618., 1.61799951e+03, 1.61103259e+03, 1.61793848e+03, 1.61793835e+03, 1.61103259e+03, 1.61793677e+03, 1.61646875e+03, 1.61799316e+03, 1618., 1618., 1618., 1618., 1618., 1618., 1618., 1618., 1618., 1618., 1618., 1618., 1618., 1618., 1618., 1618., 1618., 1618., 1618., 1618., 1618., 1618., 1618., 1618., 1618., 1618., 1618., 1618., 1618., 1618., 1618., 1618., 1618., 1.62599951e+03, 1626., 1626., 1626., 1.62599646e+03, 1618., 1618., 1618., 1618., 1.62103174e+03, 1618., 1.61829932e+03, 1.62030811e+03, 1.62587500e+03, 1.62585925e+03, 1.62003418e+03, 1.62177539e+03, 1618., 1.62000049e+03,
       1626., 1.61900439e+03, 1.62593555e+03, 1.62593555e+03, 1.62581055e+03, 1.62527051e+03, 1618., 1618., 1.62275427e+03, 1.62495850e+03, 1.62596045e+03, 1626., 1.62612500e+03, 1.62612500e+03, 1.63299219e+03, 1634., 1.63289795e+03, 1.62696826e+03, 1632., 1.62601562e+03, 1.62601562e+03, 1634., 1.62695996e+03, 1.62612842e+03, 1.62612549e+03, 1626., 1626., 1.62592090e+03, 1626., 1.62399902e+03, 1.61824646e+03, 1626., 1.62437354e+03, 1626., 1.62011169e+03, 1.61803345e+03, 1.62411169e+03, 1.61800195e+03, 1.61853357e+03, 1.61853137e+03, 1.62328394e+03, 1.62303381e+03, 1.61936523e+03, 1626., 1.62396875e+03, 1.62650806e+03, 1626., 1.62619946e+03, 1.63196680e+03, 1626., 1.62590527e+03, 1618., 1.62596777e+03, 1.61831836e+03, 1.62637500e+03, 1.61831250e+03, 1.61806250e+03, 1.62624988e+03, 1.62845703e+03, 1.63349719e+03, 1.62833594e+03, 1.62594531e+03, 1.62199939e+03, 1.61815259e+03, 1618., 1618., 1.61244055e+03, 1.61244055e+03, 1.61441797e+03, 1618., 1618., 1618., 1618., 1619., 1619., 1.61801660e+03, 1618., 1618., 1.61592175e+03, 1.61592175e+03, 1618., 1.61544104e+03, 1.61767188e+03, 1.61778113e+03, 1.61723340e+03, 1.61719189e+03, 1.61798621e+03, 1.61751453e+03, 1.61799304e+03, 1.61477368e+03, 1.61305493e+03, 1.61305139e+03, 1.61447778e+03, 1.61668042e+03, 1611., 1611., 1611., 1.61799951e+03, 1.61799951e+03, 1.61800012e+03, 1.61831555e+03, 1626., 1.62231555e+03, 1618., 1618., 1.61800208e+03, 1618., 1618., 1618., 1.61413770e+03, 1.61619531e+03, 1618., 1.61900391e+03, 1618., 1.62350391e+03, 1618., 1618., 1.61800317e+03, 1.61800220e+03, 1618., 1618., 1618., 1618., 1618., 1618., 1618., 1618., 1618., 1618., 1618., 1618., 1618., 1618., 1618., 1618., 1618., 1618., 1618., 1618., 1618., 1618., 1618., 1.61449890e+03, 1.61340344e+03, 1611., 1611., 1611., 1611., 1611., 1611., 1611., 1611., 1618., 1618., 1618., 1618., 1618., 1.61798950e+03, 1.61623279e+03, 1618., 1.61231262e+03, 1.61231250e+03, 1.61267944e+03, 1.61231433e+03, 1.61614929e+03, 1.61615356e+03, 1.61625000e+03, 1.61593530e+03, 1.61618164e+03, 1618., 1618., 1618., 1618., 1618., 1618., 1618., 1618., 1618., 1618., 1618., 1618., 1.61102734e+03, 1.61164453e+03, 1.61102734e+03, 1.61108374e+03, 1.61148462e+03, 1.61148462e+03, 1.61148462e+03, 1.61147009e+03, 1.61793835e+03, 1618., 1.61793835e+03, 1.61793835e+03, 1.61482812e+03, 1.61799316e+03, 1618., 1618., 1618., 1618., 1618., 1618., 1618., 1618., 1618., 1618., 1618., 1618., 1618., 1618., 1618., 1618., 1618., 1618., 1618., 1618., 1618., 1618., 1618., 1618., 1618., 1618., 1.61799951e+03, 1618., 1618., 1618., 1618., 1618., 1618., 1.62599951e+03, 1626., 1626., 1626., 1618., 1618., 1618., 1618., 1618., 1.62586328e+03, 1618., 1.61809729e+03, 1.62486719e+03, 1626., 1626., 1626., 1626., 1.62001599e+03, 1626.,
       1.62199988e+03, 1.61800049e+03, 1.62599805e+03, 1.62599805e+03, 1.62593555e+03, 1626., 1.61800427e+03, 1.62200537e+03, 1.62579492e+03, 1626., 1626., 1626., 1626., 1626., 1.62637988e+03, 1.62625488e+03, 1.62200391e+03, 1.62036133e+03, 1.62048633e+03, 1.61841187e+03, 1.61843115e+03, 1.62199988e+03, 1.62026721e+03, 1.62448682e+03, 1.62442090e+03, 1.61825439e+03, 1.61801245e+03, 1.62579590e+03, 1.62581250e+03, 1.61800464e+03, 1.61828613e+03, 1.62003540e+03, 1618., 1.62004907e+03, 1618., 1618., 1618., 1618., 1618., 1.61803125e+03, 1618., 1.61903320e+03, 1.61927148e+03, 1626., 1626., 1626., 1626., 1626., 1.62613306e+03, 1626., 1.62590283e+03, 1618., 1.62589941e+03, 1.61806250e+03, 1.61825000e+03, 1618., 1618., 1.61806250e+03, 1.62185034e+03, 1.62185034e+03, 1626., 1.62099841e+03, 1.61818384e+03, 1.61814453e+03, 1618., 1618., 1618., 1618., 1618., 1618., 1618., 1618., 1618., 1619., 1618., 1618., 1618., 1618., 1618., 1618., 1618., 1.61778113e+03, 1.61778125e+03, 1618., 1.61798621e+03, 1.61799988e+03, 1618., 1618., 1.61799316e+03, 1.61472241e+03, 1.61668042e+03, 1.61712488e+03, 1618., 1.61668726e+03, 1.61121875e+03, 1611., 1611., 1.61799951e+03, 1.61799951e+03, 1618., 1618., 1.61800293e+03, 1618., 1618., 1618., 1.61800220e+03, 1618., 1618., 1618., 1618., 1618., 1618., 1.62354297e+03, 1618., 1624., 1.62355872e+03, 1.61800024e+03, 1.62205029e+03, 1.61800330e+03, 1618., 1618., 1618., 1618., 1618., 1618., 1618., 1618., 1618., 1618., 1618., 1618., 1618., 1618., 1618., 1618., 1618., 1618., 1618., 1618., 1618., 1618., 1618., 1.61799890e+03, 1.61428015e+03, 1.61106201e+03, 1611., 1611., 1611., 1611., 1611., 1.61193481e+03, 1.61193396e+03, 1618., 1618., 1618., 1618., 1618., 1.61491187e+03, 1.61491187e+03, 1.61799646e+03, 1611., 1611., 1.61449988e+03, 1.61413379e+03, 1618., 1611., 1.61100110e+03, 1611., 1.61143750e+03, 1.61799988e+03, 1618., 1.61620874e+03, 1.61776733e+03, 1618., 1618., 1618., 1618., 1618., 1.61619446e+03, 1618., 1618., 1.61428003e+03, 1618., 1.61417139e+03, 1.61503979e+03, 1.61102734e+03, 1.61102734e+03, 1.61102905e+03, 1.61100171e+03, 1.61147009e+03, 1.61103247e+03, 1.61100171e+03, 1.61132983e+03, 1611., 1611., 1618., 1618., 1618., 1618., 1618., 1618., 1618., 1618., 1618., 1618., 1618., 1.61662781e+03, 1.61100012e+03, 1.61123291e+03, 1.61799829e+03, 1.61799829e+03, 1.61100049e+03, 1.61142432e+03, 1618., 1618., 1618., 1618., 1618., 1618., 1.61625000e+03, 1.61799231e+03, 1.61474805e+03, 1.61614014e+03, 1.61454749e+03, 1618., 1618., 1618., 1618., 1.62599951e+03, 1626., 1626., 1.62599829e+03, 1618., 1618., 1618., 1618., 1618., 1.62586719e+03, 1618., 1618., 1.61800781e+03, 1.62071228e+03, 1.62074414e+03, 1620., 1.62000024e+03, 1618., 1620.,
       1.62138049e+03, 1.61800049e+03, 1.62592773e+03, 1.62592773e+03, 1.62599805e+03, 1626., 1.61800024e+03, 1618., 1.62575537e+03, 1.61875537e+03, 1.62496045e+03, 1626., 1.62599219e+03, 1.62499170e+03, 1626., 1.62050171e+03, 1.62085718e+03, 1.62048828e+03, 1.62099988e+03, 1.62599988e+03, 1.62599988e+03, 1.62171594e+03, 1.61842651e+03, 1.61843750e+03, 1.62550000e+03, 1.61930701e+03, 1.61826245e+03, 1.62579395e+03, 1.62581250e+03, 1.61978613e+03, 1.61928198e+03, 1.61800024e+03, 1618., 1618., 1618., 1.61800195e+03, 1.61800195e+03, 1618., 1618., 1.61803125e+03, 1.62328381e+03, 1.61803174e+03, 1.61931445e+03, 1626., 1.61838611e+03, 1626., 1626., 1626., 1.62800781e+03, 1626., 1.62615527e+03, 1626., 1.62637402e+03, 1.62593042e+03, 1626., 1.62599951e+03, 1.61806641e+03, 1.62537427e+03, 1.62549951e+03, 1.62599951e+03, 1.62087244e+03, 1618., 1.61812915e+03, 1.61800391e+03, 1618., 1618., 1618., 1618., 1618., 1618., 1618., 1618., 1618., 1618., 1618., 1.62201562e+03, 1622., 1618., 1.61625000e+03, 1.61799988e+03, 1618., 1.61767175e+03, 1.61778113e+03, 1.61778125e+03, 1.61775293e+03, 1.61720605e+03, 1618., 1618., 1618., 1.61710425e+03, 1.61710352e+03, 1618., 1618., 1.61666504e+03, 1611., 1611., 1611., 1.61799963e+03, 1.61999988e+03, 1618., 1618., 1.61800195e+03, 1618., 1618., 1618., 1618., 1618., 1618., 1618., 1618., 1618., 1618., 1.61953516e+03, 1.62351172e+03, 1.62170190e+03, 1.61863672e+03, 1.61800195e+03, 1.62575000e+03, 1.62169873e+03, 1.62000220e+03, 1618., 1618., 1618., 1618., 1618., 1618., 1.61797266e+03, 1618., 1618., 1618., 1618., 1618., 1618., 1618., 1618., 1618., 1618., 1618., 1618., 1618., 1618., 1618., 1.61336401e+03, 1611., 1611., 1611., 1611., 1611., 1611., 1611., 1.61204419e+03, 1.61204895e+03, 1618., 1618., 1618., 1618., 1618., 1.61100098e+03, 1.61100085e+03, 1.61439062e+03, 1611., 1611., 1.61439062e+03, 1611., 1.61741528e+03, 1611., 1611., 1611., 1611., 1.61100012e+03, 1.61144702e+03, 1.61143750e+03, 1.61418164e+03, 1618., 1618., 1618., 1618., 1618., 1618., 1618., 1618., 1.61426636e+03, 1618., 1618., 1.61328955e+03, 1.61146997e+03, 1.61146838e+03, 1.61148376e+03, 1.61432751e+03, 1.61793799e+03, 1.61793799e+03, 1.61100183e+03, 1.61572192e+03, 1611., 1.61460938e+03, 1.61797266e+03, 1618., 1618., 1618., 1618., 1618., 1618., 1618., 1618., 1618., 1618., 1.61799976e+03, 1.61747974e+03, 1.61298291e+03, 1.61397070e+03, 1.61752905e+03, 1611., 1.61101416e+03, 1.61274805e+03, 1618., 1.61449658e+03, 1618., 1618., 1618., 1618., 1618., 1618., 1618., 1.61625000e+03, 1618., 1618., 1618., 1618., 1.62599951e+03, 1.62599805e+03, 1626., 1.62318384e+03, 1618., 1618., 1618., 1618., 1618., 1.61803296e+03, 1618., 1.61800049e+03, 1618., 1620., 1.62050000e+03, 1618., 1618., 1.61791284e+03, 1618.,
       1618., 1618., 1.62314648e+03, 1.61900586e+03, 1.62593555e+03, 1626., 1.62572461e+03, 1.62595898e+03, 1626., 1.62488037e+03, 1.62488232e+03, 1.62596045e+03, 1.62237793e+03, 1.62212512e+03, 1.62598145e+03, 1.62019287e+03, 1.61800488e+03, 1.62009961e+03, 1.61841980e+03, 1.61890356e+03, 1.62202856e+03, 1.62199792e+03, 1.62149988e+03, 1626., 1626., 1.61900391e+03, 1.62580176e+03, 1.62581250e+03, 1626., 1.62587500e+03, 1.62381055e+03, 1618., 1618., 1618., 1.61850195e+03, 1618., 1618., 1618., 1618., 1618., 1618., 1.61803320e+03, 1.61825195e+03, 1.62598438e+03, 1626., 1626., 1626., 1626., 1626., 1628., 1626., 1626., 1626., 1.62037512e+03, 1.62599414e+03, 1.62539856e+03, 1.62496106e+03, 1.61837500e+03, 1618., 1.61800781e+03, 1.61801562e+03, 1618., 1.61801196e+03, 1.61816846e+03, 1618., 1618., 1618., 1618., 1618., 1.62017700e+03, 1618., 1618., 1618., 1618., 1618., 1.61801562e+03, 1618., 1618., 1618., 1618., 1618., 1.61767175e+03, 1.61679675e+03, 1.61679492e+03, 1.61719238e+03, 1.61275195e+03, 1.61731555e+03, 1618., 1618., 1.61797925e+03, 1.61799316e+03, 1618., 1618., 1.61710938e+03, 1611., 1611., 1611., 1.61799963e+03, 1.62031995e+03, 1618., 1.61800195e+03, 1.61800195e+03, 1618., 1618., 1618., 1618., 1618., 1618., 1618., 1618., 1618., 1618., 1.61803137e+03, 1.62253711e+03, 1.61850049e+03, 1.62050000e+03, 1618., 1.61800977e+03, 1618., 1618., 1618., 1618., 1618., 1618., 1618., 1618., 1618., 1618., 1.61268799e+03, 1618., 1618., 1.61799658e+03, 1618., 1618., 1618., 1618., 1618., 1618., 1618., 1618., 1618., 1618., 1618., 1.61340601e+03, 1.61294104e+03, 1611., 1611., 1611., 1611., 1.61162427e+03, 1618., 1618., 1618., 1618., 1618., 1618., 1618., 1.61210913e+03, 1.61100085e+03, 1.61210828e+03, 1611., 1611., 1.61796570e+03, 1611., 1.61276453e+03, 1611., 1611., 1611., 1611., 1.61596216e+03, 1.61582202e+03, 1.61776685e+03, 1.61776733e+03, 1618., 1618., 1618., 1618., 1618., 1618., 1618., 1618., 1618., 1618., 1618., 1618., 1618., 1618., 1618., 1618., 1618., 1618., 1618., 1618., 1.61450012e+03, 1.61752393e+03, 1618., 1618., 1618., 1618., 1618., 1618., 1618., 1618., 1618., 1618., 1.61799939e+03, 1.61108215e+03, 1.61464331e+03, 1611., 1.61123291e+03, 1.61490747e+03, 1.61100049e+03, 1.61123987e+03, 1.61668567e+03, 1.61756238e+03, 1.61449658e+03, 1618., 1618., 1618., 1618., 1618., 1618., 1.61799609e+03, 1.61471875e+03, 1618., 1618., 1.61491052e+03, 1.61491028e+03, 1.61799951e+03, 1618., 1.62217969e+03, 1.62349829e+03, 1618., 1618., 1618., 1618., 1618., 1618., 1618., 1618., 1618., 1618., 1.62068115e+03, 1618., 1618., 1.61668884e+03, 1618.,
       1618., 1618., 1618., 1618., 1.61800037e+03, 1.62553711e+03, 1.62400427e+03, 1.62588037e+03, 1.62598413e+03, 1.62594482e+03, 1.62599170e+03, 1.62596069e+03, 1.62548804e+03, 1.61837500e+03, 1.62063782e+03, 1.61826318e+03, 1.61801282e+03, 1.62010742e+03, 1.61848230e+03, 1618., 1618., 1.62193542e+03, 1.62550000e+03, 1626., 1626., 1.61800049e+03, 1.61989624e+03, 1.62587500e+03, 1.62587500e+03, 1.62587500e+03, 1.61875562e+03, 1.61825024e+03, 1618., 1618., 1618., 1618., 1618., 1618., 1618., 1618., 1.61804688e+03, 1.61803125e+03, 1618., 1.62598047e+03, 1.62195215e+03, 1626., 1626., 1.62498340e+03, 1.62599902e+03, 1626., 1.62599707e+03, 1.62599707e+03, 1626., 1.62037500e+03, 1.62589990e+03, 1.62589856e+03, 1.62599951e+03, 1.62146802e+03, 1.62046509e+03, 1.62446204e+03, 1.62027344e+03, 1.61804297e+03, 1.62066833e+03, 1.62041943e+03, 1618., 1618., 1618., 1618., 1618., 1.62005078e+03, 1618., 1618., 1618., 1618., 1618., 1618., 1618., 1618., 1618., 1618., 1618., 1.61778125e+03, 1618., 1618., 1.61721326e+03, 1.61672107e+03, 1.61765796e+03, 1.61719238e+03, 1618., 1618., 1618., 1618., 1618., 1618., 1611., 1.61664368e+03, 1.61285938e+03, 1.62006995e+03, 1.62199548e+03, 1.62000195e+03, 1.62431616e+03, 1.61800195e+03, 1618., 1618., 1618., 1618., 1618., 1618., 1618., 1.61798462e+03, 1618., 1618., 1.61803186e+03, 1.61800012e+03, 1618., 1618., 1618., 1.62007251e+03, 1.61850000e+03, 1.61825000e+03, 1618., 1618., 1618., 1618., 1618., 1618., 1618., 1618., 1.61427393e+03, 1618., 1618., 1.61116748e+03, 1618., 1618., 1618., 1618., 1618., 1618., 1618., 1618., 1618., 1618., 1618., 1618., 1618., 1.61100220e+03, 1611., 1611., 1611., 1.61107007e+03, 1618., 1618., 1618., 1618., 1618., 1618., 1618., 1.61255518e+03, 1.61188953e+03, 1.61210828e+03, 1611., 1611., 1.61799988e+03, 1611., 1.61100012e+03, 1.61143762e+03, 1.61450439e+03, 1611., 1.61144531e+03, 1.61798633e+03, 1618., 1618., 1618., 1618., 1618., 1618., 1618., 1618., 1618., 1618., 1618., 1.61799316e+03, 1618., 1618., 1618., 1618., 1618., 1618., 1618., 1618., 1618., 1.61799988e+03, 1618., 1.61796924e+03, 1618., 1618., 1618., 1618., 1618., 1618., 1618., 1618., 1618., 1618., 1618., 1618., 1.61452747e+03, 1.61644238e+03, 1611., 1611., 1.61139355e+03, 1.61140918e+03, 1.61135278e+03, 1.61316003e+03, 1.61135449e+03, 1.61438574e+03, 1618., 1618., 1618., 1618., 1618., 1.61799658e+03, 1.61175220e+03, 1611., 1611., 1611., 1610., 1611., 1.61799951e+03, 1618., 1618., 1618., 1618., 1618., 1618., 1618., 1618., 1618., 1618., 1618., 1.61799316e+03, 1618., 1.61864990e+03, 1618., 1618., 1.61815515e+03, 1.62220728e+03,
       1618., 1.61714368e+03, 1618., 1618., 1618., 1.62503699e+03, 1.62500476e+03, 1.62513232e+03, 1626., 1.62488232e+03, 1.62489795e+03, 1.62589771e+03, 1.62337720e+03, 1618., 1.61825000e+03, 1.61800488e+03, 1.61800488e+03, 1.62199792e+03, 1.62093542e+03, 1618., 1618., 1.61840356e+03, 1626., 1624., 1.61863330e+03, 1.61800049e+03, 1.62396680e+03, 1.62587500e+03, 1626., 1626., 1.61981055e+03, 1.61875073e+03, 1618., 1618., 1618., 1618., 1618., 1618., 1618., 1618., 1618., 1618., 1.61839648e+03, 1.62598438e+03, 1626., 1626., 1626., 1618., 1620., 1.62491431e+03, 1.62025000e+03, 1.62028125e+03, 1.62599854e+03, 1.61825000e+03, 1.62137500e+03, 1.62589880e+03, 1.62599951e+03, 1.61812500e+03, 1.61814062e+03, 1.61812500e+03, 1618., 1618., 1618., 1.61803125e+03, 1618., 1618., 1.61800098e+03, 1.61803125e+03, 1.61803125e+03, 1618., 1618., 1618., 1618., 1618., 1618., 1618., 1618., 1.61597656e+03, 1.61586719e+03, 1618., 1618., 1618., 1618., 1.61701331e+03, 1611., 1.61102905e+03, 1.61730859e+03, 1.61730859e+03, 1618., 1.61799316e+03, 1.61799316e+03, 1618., 1618., 1618., 1.61510522e+03, 1.61685559e+03, 1.61685559e+03, 1.62499756e+03, 1.62599951e+03, 1618., 1618., 1618., 1618., 1618., 1618., 1618., 1618., 1618., 1618., 1618., 1618., 1618., 1618., 1.62250391e+03, 1618., 1618., 1618., 1618., 1618., 1618., 1618., 1618., 1618., 1618., 1618., 1618., 1618., 1618., 1618., 1618., 1618., 1.61624316e+03, 1.61794531e+03, 1618., 1618., 1618., 1618., 1618., 1618., 1618., 1618., 1618., 1618., 1.61206641e+03, 1.61107837e+03, 1.61100903e+03, 1.61100220e+03, 1611., 1611., 1.61105469e+03, 1618., 1618., 1618., 1618., 1618., 1618., 1.61786157e+03, 1611., 1611., 1611., 1611., 1611., 1.61188867e+03, 1611., 1611., 1611., 1611., 1611., 1611., 1.61776709e+03, 1.61776758e+03, 1618., 1618., 1618., 1618., 1618., 1618., 1618., 1618., 1618., 1618., 1618., 1618., 1618., 1618., 1618., 1618., 1618., 1618., 1618., 1618., 1618., 1618., 1.61796924e+03, 1618., 1618., 1618., 1618., 1618., 1618., 1618., 1618., 1618., 1618., 1618., 1618., 1618., 1618., 1.61470605e+03, 1.61121875e+03, 1.61664355e+03, 1.61668750e+03, 1.61135254e+03, 1.61298291e+03, 1611., 1611., 1.61449988e+03, 1618., 1618., 1618., 1618., 1.61799658e+03, 1.61498621e+03, 1611., 1.61101367e+03, 1611., 1.60721240e+03, 1611., 1.61799951e+03, 1618., 1618., 1618., 1618., 1.61471790e+03, 1618., 1618., 1618., 1618., 1.61529602e+03, 1618., 1.61711304e+03, 1618., 1.61813306e+03, 1618., 1.61818750e+03, 1.61791504e+03, 1.62449658e+03,
       1618., 1.61778125e+03, 1618., 1618., 1.62200415e+03, 1.62567188e+03, 1626., 1626., 1626., 1.62492139e+03, 1.62488013e+03, 1.62063782e+03, 1618., 1618., 1618., 1618., 1618., 1.62140405e+03, 1.61821509e+03, 1618., 1618., 1618., 1618., 1.61800781e+03, 1618., 1618., 1618., 1.62057446e+03, 1626., 1.62587500e+03, 1618., 1618., 1618., 1618., 1618., 1618., 1618., 1618., 1618., 1618., 1618., 1.61803125e+03, 1.62343701e+03, 1.62597949e+03, 1626., 1626., 1626., 1.62015625e+03, 1620., 1.62491431e+03, 1.62591443e+03, 1626., 1626., 1.62037500e+03, 1.62037524e+03, 1.62588281e+03, 1626., 1.61812500e+03, 1.61812500e+03, 1618., 1618., 1618., 1618., 1618., 1618., 1618., 1618., 1618., 1618., 1618., 1618., 1618., 1618., 1618., 1.61781750e+03, 1.61799866e+03, 1.61777734e+03, 1.61586328e+03, 1618., 1618., 1618., 1618., 1618., 1.61127112e+03, 1611., 1.61275342e+03, 1.61393115e+03, 1.61713086e+03, 1618., 1.61797949e+03, 1.61707446e+03, 1618., 1618., 1618., 1.61668750e+03, 1.61685498e+03, 1611., 1.62096228e+03, 1.62599951e+03, 1618., 1.61812695e+03, 1618., 1618., 1618., 1618., 1618., 1618., 1618., 1618., 1618., 1618., 1622., 1618., 1618., 1618., 1618., 1618., 1618., 1618., 1618., 1618., 1618., 1618., 1618., 1618., 1618., 1618., 1618., 1618., 1618., 1618., 1618., 1618., 1618., 1618., 1618., 1618., 1618., 1618., 1618., 1618., 1618., 1618., 1.61206641e+03, 1618., 1.61556641e+03, 1618., 1.61100049e+03, 1611., 1.61193909e+03, 1618., 1618., 1618., 1618., 1618., 1618., 1618., 1.61165625e+03, 1.61121875e+03, 1611., 1611., 1611., 1.61428149e+03, 1611., 1611., 1611., 1611., 1611., 1611., 1.61450781e+03, 1.61771265e+03, 1618., 1618., 1618., 1618., 1618., 1618., 1618., 1618., 1618., 1618., 1618., 1618., 1618., 1618., 1618., 1618., 1618., 1618., 1618., 1618., 1618., 1.61797266e+03, 1618., 1618., 1618., 1618., 1618., 1618., 1618., 1618., 1618., 1618., 1618., 1618., 1618., 1618., 1618., 1618., 1.61665894e+03, 1.61756250e+03, 1618., 1618., 1.61668750e+03, 1611., 1.61105469e+03, 1.61756238e+03, 1618., 1618., 1618., 1618., 1.61536450e+03, 1611., 1611., 1.61101367e+03, 1611., 1.60320508e+03, 1611., 1.61799951e+03, 1618., 1618., 1618., 1618., 1618., 1.61801562e+03, 1618., 1618., 1618., 1618., 1618., 1618., 1618., 1.61800024e+03, 1618., 1618., 1618., 1618.,
       1618., 1618., 1618., 1618., 1.61800024e+03, 1.62503894e+03, 1626., 1626., 1.62603540e+03, 1.62492139e+03, 1.62241895e+03, 1.61812598e+03, 1618., 1618., 1618., 1618., 1618., 1.61827368e+03, 1.61801562e+03, 1618., 1618., 1618., 1.61800806e+03, 1.62200806e+03, 1.62131250e+03, 1.62599109e+03, 1.61800049e+03, 1.62587500e+03, 1.62587500e+03, 1.62587500e+03, 1.61850000e+03, 1618., 1618., 1618., 1618., 1618., 1618., 1618., 1.61803125e+03, 1.62243604e+03, 1626., 1626., 1626., 1.61800061e+03, 1626., 1626., 1626., 1618., 1618., 1.62541687e+03, 1626., 1626., 1626., 1.62599548e+03, 1.62599548e+03, 1.62599744e+03, 1626., 1.62599951e+03, 1.62564844e+03, 1618., 1618., 1618., 1618., 1618., 1618., 1618., 1618., 1618., 1618., 1618., 1.61794531e+03, 1.61695618e+03, 1.61277905e+03, 1.61277905e+03, 1.61102905e+03, 1.61102905e+03, 1611., 1611., 1.61102747e+03, 1618., 1618., 1.61761658e+03, 1.61789062e+03, 1.61346033e+03, 1611., 1611., 1611., 1.61100049e+03, 1618., 1.61797949e+03, 1.61319092e+03, 1618., 1618., 1618., 1.61668750e+03, 1.61674219e+03, 1.61275000e+03, 1.62599951e+03, 1.62599951e+03, 1618., 1618., 1618., 1618., 1618., 1618., 1618., 1618., 1618., 1618., 1618., 1618., 1622., 1618., 1618., 1618., 1618., 1618., 1618., 1618., 1618., 1618., 1618., 1618., 1618., 1618., 1618., 1618., 1618., 1618., 1618., 1618., 1618., 1618., 1618., 1618., 1618., 1618., 1618., 1618., 1618., 1618., 1618., 1618., 1.61195361e+03, 1.61275000e+03, 1618., 1.61272266e+03, 1611., 1611., 1611., 1.61624976e+03, 1.61624927e+03, 1618., 1618., 1.61610706e+03, 1.61788892e+03, 1.61449829e+03, 1.61165625e+03, 1.61428833e+03, 1.61428833e+03, 1.61165625e+03, 1.61253125e+03, 1.61799829e+03, 1611., 1.61187500e+03, 1.61105469e+03, 1.61458289e+03, 1611., 1611., 1.61799951e+03, 1.61799988e+03, 1618., 1618., 1618., 1618., 1618., 1618., 1618., 1.61783508e+03, 1.61100024e+03, 1611., 1618., 1.61494116e+03, 1.61791113e+03, 1618., 1.61799316e+03, 1618., 1618., 1618., 1618., 1618., 1.61796729e+03, 1618., 1618., 1618., 1618., 1618., 1618., 1618., 1618., 1618., 1618., 1618., 1618., 1618., 1618., 1618., 1618., 1618., 1.61122949e+03, 1.61664355e+03, 1.61756250e+03, 1.61310425e+03, 1.61121875e+03, 1611., 1.61105469e+03, 1.61219531e+03, 1618., 1618., 1618., 1.61613037e+03, 1.61101367e+03, 1611., 1611., 1611., 1611., 1.60771448e+03, 1611., 1.61799951e+03, 1618., 1618., 1618., 1618., 1618., 1.61808179e+03, 1618., 1618., 1618., 1618., 1.61801611e+03, 1618., 1618., 1618., 1618., 1618., 1618., 1618.,
       1618., 1618., 1618., 1618., 1.62400220e+03, 1626., 1626., 1626., 1626., 1.62492114e+03, 1.61800391e+03, 1618., 1618., 1618., 1618., 1618., 1618., 1618., 1.61801562e+03, 1618., 1618., 1618., 1618., 1618., 1.62582507e+03, 1.62567188e+03, 1.61800830e+03, 1626., 1.62585938e+03, 1.62585938e+03, 1.62585339e+03, 1.61850000e+03, 1618., 1618., 1618., 1618., 1618., 1618., 1.62548242e+03, 1626., 1626., 1626., 1626., 1.62498438e+03, 1626., 1626., 1626., 1618., 1618., 1.62428931e+03, 1.62599609e+03, 1626., 1626., 1.62599548e+03, 1.62538293e+03, 1.62599939e+03, 1626., 1.62596631e+03, 1.62213281e+03, 1618., 1618., 1618., 1618., 1618., 1618., 1618., 1618., 1618., 1618., 1618., 1618., 1.61783130e+03, 1.61102734e+03, 1.61102734e+03, 1.61102905e+03, 1.61102905e+03, 1611., 1611., 1611., 1.61619531e+03, 1618., 1.61783594e+03, 1.61789062e+03, 1.61696094e+03, 1.61345410e+03, 1.61437012e+03, 1.61275427e+03, 1.61275085e+03, 1.61447949e+03, 1.61784277e+03, 1.61275000e+03, 1618., 1618., 1618., 1.61685547e+03, 1.61499268e+03, 1.61674219e+03, 1.62494678e+03, 1.62599951e+03, 1618., 1618., 1618., 1618., 1618., 1618., 1618., 1618., 1618., 1618., 1618., 1618., 1618., 1618., 1618., 1618., 1618., 1618., 1618., 1618., 1618., 1618., 1618., 1618., 1618., 1618., 1618., 1618., 1618., 1618., 1618., 1618., 1618., 1618., 1618., 1618., 1618., 1618., 1618., 1618., 1618., 1618., 1618., 1618., 1.61581250e+03, 1.61275000e+03, 1618., 1.61625000e+03, 1611., 1611., 1611., 1611., 1611., 1618., 1618., 1.61799463e+03, 1.61610962e+03, 1.61357886e+03, 1.61143750e+03, 1.61143750e+03, 1.61165625e+03, 1611., 1.61121875e+03, 1.61428833e+03, 1611., 1.61187500e+03, 1611., 1611., 1611., 1.61187500e+03, 1.61797241e+03, 1611., 1.61799988e+03, 1618., 1.61799951e+03, 1.61783594e+03, 1618., 1618., 1618., 1611., 1611., 1611., 1.61587268e+03, 1611., 1.61155054e+03, 1618., 1618., 1618., 1618., 1618., 1618., 1.61797266e+03, 1.61797241e+03, 1618., 1.61797266e+03, 1618., 1618., 1618., 1618., 1618., 1618., 1618., 1618., 1618., 1618., 1618., 1618., 1618., 1618., 1618., 1618., 1.61182788e+03, 1.61756250e+03, 1.61316016e+03, 1611., 1.61129126e+03, 1.61481519e+03, 1.61580469e+03, 1618., 1618., 1618., 1618., 1.61799658e+03, 1.61153467e+03, 1.61101367e+03, 1.61495374e+03, 1.61145203e+03, 1611., 1.61101367e+03, 1.61799951e+03, 1.61801562e+03, 1.61814062e+03, 1618., 1.61801562e+03, 1618., 1626., 1.62421863e+03, 1626., 1.62408752e+03, 1.62302490e+03, 1.62509143e+03, 1618., 1618., 1618., 1618., 1618., 1.61797266e+03, 1618.,
       1618., 1618., 1618., 1618., 1618., 1618., 1.61800195e+03, 1.62442505e+03, 1.62442126e+03, 1.61843530e+03, 1618., 1618., 1618., 1618., 1618., 1618., 1618., 1618., 1.61800122e+03, 1.61800122e+03, 1.61799829e+03, 1.61799658e+03, 1618., 1618., 1618., 1626., 1.62470227e+03, 1.62587256e+03, 1.62598425e+03, 1626., 1626., 1.62584363e+03, 1618., 1618., 1618., 1618., 1618., 1618., 1.62348242e+03, 1626., 1626., 1626., 1.62600012e+03, 1626., 1.62600012e+03, 1626., 1626., 1.62028979e+03, 1618., 1.62029163e+03, 1.62447961e+03, 1626., 1626., 1.62546423e+03, 1.62444836e+03, 1.62599548e+03, 1626., 1626., 1626., 1618., 1618., 1618., 1618., 1618., 1.61799988e+03, 1618., 1.61542041e+03, 1.61717090e+03, 1618., 1618., 1618., 1618., 1.61146484e+03, 1.61146484e+03, 1.61799951e+03, 1.61799951e+03, 1.61245129e+03, 1611., 1.61103259e+03, 1.61126611e+03, 1618., 1618., 1618., 1.61789062e+03, 1618., 1.61450000e+03, 1.61277734e+03, 1611., 1.61415137e+03, 1.61275342e+03, 1611., 1.61799146e+03, 1.61708887e+03, 1618., 1.61799829e+03, 1618., 1.61797095e+03, 1.62599951e+03, 1.62599951e+03, 1618., 1.62557617e+03, 1618., 1618., 1618., 1618., 1618., 1618., 1618., 1618., 1618., 1618., 1618., 1618., 1618., 1618., 1618., 1618., 1618., 1618., 1.61382471e+03, 1618., 1618., 1618., 1618., 1618., 1618., 1618., 1618., 1618., 1618., 1618., 1618., 1618., 1618., 1618., 1618., 1618., 1618., 1618., 1618., 1618., 1618., 1618., 1.61223047e+03, 1.61100256e+03, 1.61625000e+03, 1.61100220e+03, 1611., 1.60884351e+03, 1.60851782e+03, 1611., 1611., 1618., 1.61799634e+03, 1.61143750e+03, 1611., 1.61143750e+03, 1611., 1611., 1611., 1611., 1611., 1611., 1611., 1611., 1611., 1611., 1611., 1.61450000e+03, 1618., 1.61111108e+03, 1618., 1618., 1618., 1618., 1618., 1618., 1618., 1611., 1611., 1611., 1.61143774e+03, 1611., 1.61143750e+03, 1.61505066e+03, 1.61242566e+03, 1618., 1618., 1618., 1618., 1618., 1618., 1618., 1618., 1618., 1618., 1618., 1618., 1618., 1618., 1618., 1618., 1618., 1618., 1618., 1618., 1618., 1618., 1618., 1618., 1618., 1.61314648e+03, 1.61403259e+03, 1.61121875e+03, 1.61755469e+03, 1.61755469e+03, 1.61537500e+03, 1618., 1618., 1.61537500e+03, 1618., 1618., 1.61101367e+03, 1611., 1.61101453e+03, 1.61670435e+03, 1611., 1611., 1.61799951e+03, 1.61801562e+03, 1618., 1618., 1618., 1618., 1.62421680e+03, 1.62208606e+03, 1.62575000e+03, 1.62208765e+03, 1.62302515e+03, 1.62512476e+03, 1623., 1622., 1.61900049e+03, 1618., 1.62300146e+03, 1618., 1.61803125e+03,
       1618., 1618., 1618., 1.61801562e+03, 1.61803906e+03, 1618., 1.61803125e+03, 1.61828906e+03, 1.61828931e+03, 1.61803125e+03, 1618., 1618., 1618., 1618., 1618., 1618., 1.61805078e+03, 1.62105151e+03, 1.62599792e+03, 1.62587292e+03, 1.62599792e+03, 1.61907056e+03, 1618., 1618., 1.62232031e+03, 1626., 1.62457385e+03, 1.62457776e+03, 1.61800049e+03, 1626., 1626., 1.62599988e+03, 1618., 1618., 1618., 1618., 1618., 1618., 1.61843799e+03, 1.62548438e+03, 1626., 1626., 1626., 1.62598438e+03, 1626., 1626., 1626., 1.62579688e+03, 1620., 1.62535522e+03, 1.62425195e+03, 1626., 1.62599951e+03, 1.62527649e+03, 1.62599939e+03, 1.62599951e+03, 1626., 1626., 1626., 1618., 1618., 1618., 1618., 1618., 1.61772632e+03, 1.61799988e+03, 1.61717249e+03, 1.61722729e+03, 1618., 1618., 1618., 1618., 1.61334644e+03, 1.61157593e+03, 1.61799951e+03, 1618., 1.61252307e+03, 1.61275269e+03, 1618., 1.61126611e+03, 1618., 1618., 1618., 1.61789062e+03, 1618., 1.61438379e+03, 1.61277734e+03, 1611., 1.61275427e+03, 1611., 1611., 1.61275000e+03, 1.61275000e+03, 1618., 1.61795630e+03, 1.61795630e+03, 1.61773413e+03, 1.62599951e+03, 1.62599951e+03, 1618., 1618., 1618., 1618., 1618., 1618., 1618., 1618., 1.61871167e+03, 1618., 1618., 1618., 1618., 1618., 1618., 1618., 1618., 1618., 1618., 1618., 1618., 1618., 1618., 1618., 1618., 1618., 1618., 1618., 1618., 1618., 1618., 1618., 1618., 1618., 1618., 1618., 1618., 1618., 1618., 1618., 1618., 1618., 1618., 1618., 1.61263721e+03, 1.61211768e+03, 1.61614062e+03, 1611., 1611., 1.60896851e+03, 1.60400879e+03, 1611., 1611., 1.61502002e+03, 1.61347522e+03, 1.61624548e+03, 1611., 1.61143750e+03, 1611., 1611., 1611., 1.61099609e+03, 1611., 1611., 1611., 1611., 1611., 1611., 1611., 1.61450000e+03, 1618., 1.61668359e+03, 1618., 1618., 1618., 1.61450000e+03, 1.61450000e+03, 1.61438940e+03, 1.61143750e+03, 1611., 1.61087500e+03, 1611., 1611., 1611., 1611., 1.61592566e+03, 1.61242566e+03, 1618., 1618., 1.61798633e+03, 1618., 1618., 1618., 1618., 1.61494006e+03, 1618., 1618., 1618., 1618., 1.61794531e+03, 1.61100024e+03, 1.61538892e+03, 1618., 1618., 1618., 1618., 1618., 1618., 1618., 1618., 1618., 1618., 1.61450000e+03, 1618., 1.61123584e+03, 1.61755469e+03, 1.61131860e+03, 1.61537427e+03, 1.61478894e+03, 1.61625000e+03, 1.60425000e+03, 1.61150586e+03, 1.61500598e+03, 1611., 1611., 1611., 1611., 1611., 1.61101367e+03, 1.61799951e+03, 1618., 1618., 1618., 1618., 1618., 1618., 1618., 1.62208691e+03, 1.62512280e+03, 1.62200012e+03, 1.62302893e+03, 1618., 1618., 1.62300745e+03, 1.61900732e+03, 1.62303870e+03, 1.62015625e+03, 1.62549268e+03,
       1618., 1618., 1620., 1.61800024e+03, 1.61800024e+03, 1.61800024e+03, 1.61528052e+03, 1.62506250e+03, 1.62001624e+03, 1618., 1618., 1618., 1618., 1618., 1618., 1618., 1618., 1618., 1.61801562e+03, 1.61801611e+03, 1.62527527e+03, 1618., 1618., 1618., 1618., 1626., 1.62457385e+03, 1.62457776e+03, 1.62599988e+03, 1626., 1626., 1626., 1.62484265e+03, 1618., 1618., 1.62437939e+03, 1618., 1618., 1618., 1.61806653e+03, 1.62248291e+03, 1.62248438e+03, 1626., 1618., 1.62598438e+03, 1626., 1.62585828e+03, 1.62592188e+03, 1.61850000e+03, 1.62576001e+03, 1.62582361e+03, 1626., 1626., 1.62599939e+03, 1.62599939e+03, 1626., 1626., 1626., 1626., 1618., 1618., 1618., 1618., 1.61799988e+03, 1.61450085e+03, 1.61799976e+03, 1611., 1.61453162e+03, 1.61799976e+03, 1.61799988e+03, 1.61799988e+03, 1618., 1618., 1.61531543e+03, 1.61799915e+03, 1.61799915e+03, 1.61100171e+03, 1.61472095e+03, 1.61253662e+03, 1611., 1.61624231e+03, 1.61188013e+03, 1618., 1.61789062e+03, 1618., 1611., 1611., 1611., 1611., 1611., 1611., 1611., 1611., 1.61318750e+03, 1.61149219e+03, 1.61685913e+03, 1.61685913e+03, 1.62599951e+03, 1.62598389e+03, 1618., 1618., 1618., 1618., 1618., 1618., 1618., 1618., 1618., 1618., 1618., 1618., 1618., 1618., 1618., 1618., 1618., 1618., 1618., 1618., 1618., 1618., 1618., 1618., 1618., 1618., 1618., 1618., 1618., 1618., 1618., 1618., 1618., 1618., 1618., 1618., 1618., 1618., 1618., 1618., 1618., 1618., 1618., 1.61222400e+03, 1611., 1611., 1611., 1611., 1611., 1.60819592e+03, 1603., 1.60899976e+03, 1.61711218e+03, 1618., 1.61799634e+03, 1611., 1611., 1611., 1611., 1.60699243e+03, 1611., 1611., 1.61099805e+03, 1611., 1611., 1611., 1611., 1.61105469e+03, 1611., 1618., 1618., 1.61799829e+03, 1618., 1618., 1618., 1618., 1618., 1.61438940e+03, 1.61438770e+03, 1611., 1.61087500e+03, 1611., 1611., 1611., 1611., 1.61531177e+03, 1611., 1618., 1.61702930e+03, 1.61154712e+03, 1.61794531e+03, 1618., 1618., 1.61144434e+03, 1.61450708e+03, 1.61624780e+03, 1618., 1.61799988e+03, 1.61291150e+03, 1611., 1611., 1611., 1618., 1618., 1618., 1618., 1618., 1618., 1618., 1618., 1618., 1618., 1.61450000e+03, 1618., 1.61403247e+03, 1618., 1.61756250e+03, 1.61625000e+03, 1.61500769e+03, 1.61105469e+03, 1603., 1.60849255e+03, 1611., 1611., 1611., 1611., 1611., 1611., 1.61673169e+03, 1.61799951e+03, 1.62502637e+03, 1618., 1618., 1618., 1618., 1618., 1618., 1.61806250e+03, 1618., 1618., 1.62200549e+03, 1618., 1618., 1.62300745e+03, 1.61900745e+03, 1.62303125e+03, 1.62003125e+03, 1.62549902e+03,
       1.61800049e+03, 1618., 1618., 1618., 1618., 1.61756250e+03, 1.61750439e+03, 1618., 1618., 1618., 1618., 1618., 1618., 1.61801562e+03, 1618., 1618., 1618., 1618., 1618., 1618., 1618., 1618., 1618., 1618., 1.62207080e+03, 1.62599988e+03, 1.62320264e+03, 1.62510889e+03, 1.62598425e+03, 1.62599988e+03, 1626., 1626., 1.62559338e+03, 1618., 1618., 1618., 1618., 1618., 1618., 1618., 1618., 1.61800427e+03, 1626., 1618., 1.62551404e+03, 1.62206470e+03, 1.62582703e+03, 1.62598438e+03, 1.61800024e+03, 1.62532422e+03, 1.62532251e+03, 1626., 1626., 1.62599988e+03, 1.62587048e+03, 1.62599988e+03, 1626., 1.62599988e+03, 1.62599988e+03, 1618., 1618., 1618., 1618., 1.61794519e+03, 1.61777405e+03, 1.61799988e+03, 1.61637610e+03, 1.61755530e+03, 1618., 1618., 1.61712488e+03, 1618., 1.61712500e+03, 1.61712415e+03, 1618., 1618., 1618., 1618., 1618., 1.61100171e+03, 1618., 1.61793823e+03, 1618., 1.61789062e+03, 1.61122546e+03, 1.61277734e+03, 1611., 1.61365771e+03, 1611., 1611., 1611., 1611., 1611., 1.61318750e+03, 1618., 1.61762439e+03, 1.61773376e+03, 1.62599951e+03, 1.62497705e+03, 1618., 1618., 1618., 1618., 1618., 1618., 1618., 1618., 1618., 1618., 1618., 1618., 1618., 1618., 1618., 1.61654395e+03, 1.61798462e+03, 1618., 1618., 1618., 1618., 1618., 1618., 1618., 1618., 1618., 1618., 1618., 1618., 1618., 1618., 1618., 1618., 1618., 1618., 1618., 1618., 1618., 1618., 1618., 1618., 1618., 1618., 1.61799829e+03, 1611., 1611., 1.61488293e+03, 1611., 1611., 1611., 1.61096802e+03, 1611., 1.61450049e+03, 1.61794458e+03, 1.61143335e+03, 1611., 1.61099951e+03, 1611., 1611., 1.60692993e+03, 1611., 1611., 1611., 1611., 1611., 1611., 1611., 1.61100085e+03, 1611., 1611., 1.61578540e+03, 1611., 1.61712463e+03, 1.61124780e+03, 1.61212109e+03, 1611., 1.61432910e+03, 1.61233984e+03, 1611., 1611., 1611., 1611., 1611., 1611., 1611., 1.61110986e+03, 1611., 1.61706348e+03, 1.61531091e+03, 1611., 1.61529980e+03, 1618., 1.61625000e+03, 1.61100085e+03, 1611., 1.61553308e+03, 1.61624414e+03, 1618., 1618., 1611., 1.61099951e+03, 1611., 1.61789014e+03, 1618., 1618., 1618., 1618., 1618., 1618., 1618., 1618., 1618., 1618., 1618., 1.61403418e+03, 1618., 1.61756238e+03, 1.61105481e+03, 1.61105481e+03, 1611., 1603., 1.60899512e+03, 1.61500769e+03, 1.61100171e+03, 1611., 1.61143835e+03, 1.61145203e+03, 1.61772656e+03, 1.61778125e+03, 1.61799963e+03, 1.61800098e+03, 1618., 1618., 1618., 1618., 1618., 1618., 1618., 1618., 1618., 1618., 1618., 1618., 1618., 1618., 1.61800098e+03, 1618., 1.62549829e+03,
       1618., 1618., 1.61812585e+03, 1618., 1618., 1618., 1618., 1618., 1618., 1618., 1618., 1618., 1618., 1618., 1618., 1618., 1618., 1618., 1618., 1618., 1618., 1.62332812e+03, 1618., 1618., 1618., 1.62319092e+03, 1.62206299e+03, 1618., 1618., 1618., 1626., 1.62587463e+03, 1620., 1618., 1618., 1618., 1618., 1618., 1618., 1618., 1618., 1618., 1618., 1618., 1618., 1.62556934e+03, 1.62406641e+03, 1.62560938e+03, 1620., 1.62520312e+03, 1.62546875e+03, 1626., 1626., 1.62549597e+03, 1.62599597e+03, 1.62599597e+03, 1626., 1626., 1626., 1618., 1618., 1618., 1618., 1.61594873e+03, 1.61723999e+03, 1.61636157e+03, 1611., 1.61461108e+03, 1.61756250e+03, 1.61668042e+03, 1.61668665e+03, 1618., 1618., 1618., 1618., 1618., 1618., 1618., 1618., 1611., 1618., 1611., 1.61123889e+03, 1.61783569e+03, 1611., 1.61454272e+03, 1611., 1.61278271e+03, 1611., 1611., 1611., 1611., 1611., 1.61277734e+03, 1618., 1.61799658e+03, 1.61677161e+03, 1.62598389e+03, 1.62497900e+03, 1618., 1618., 1618., 1618., 1618., 1618., 1618., 1618., 1618., 1618., 1.61785620e+03, 1.61100366e+03, 1.61797266e+03, 1.61766309e+03, 1618., 1.61753516e+03, 1.61659741e+03, 1618., 1618., 1618., 1618., 1618., 1618., 1618., 1618., 1618., 1618., 1618., 1618., 1618., 1618., 1618., 1618., 1618., 1618., 1618., 1618., 1618., 1618., 1618., 1618., 1618., 1618., 1.61402637e+03, 1.61110938e+03, 1611., 1.61314648e+03, 1611., 1611., 1611., 1611., 1.61450000e+03, 1.61537073e+03, 1.61125977e+03, 1611., 1611., 1611., 1611., 1611., 1.61099927e+03, 1611., 1.61493750e+03, 1611., 1611., 1611., 1.61096875e+03, 1611., 1611., 1.61098438e+03, 1611., 1611., 1611., 1.61131055e+03, 1.61301929e+03, 1.61794495e+03, 1.61444531e+03, 1618., 1.61432910e+03, 1611., 1611., 1611., 1.61104102e+03, 1611., 1611., 1611., 1.61712500e+03, 1.61112354e+03, 1618., 1.61794531e+03, 1.61100342e+03, 1.61100342e+03, 1618., 1.61619312e+03, 1618., 1618., 1618., 1618., 1618., 1618., 1618., 1618., 1.61102905e+03, 1.61799951e+03, 1618., 1618., 1618., 1618., 1618., 1618., 1618., 1618., 1618., 1618., 1618., 1618., 1618., 1618., 1.61490186e+03, 1.61451379e+03, 1611., 1611., 1611., 1.61495386e+03, 1.61450183e+03, 1611., 1611., 1611., 1.61673193e+03, 1.61450183e+03, 1.61799951e+03, 1618., 1618., 1618., 1618., 1618., 1618., 1618., 1618., 1618., 1618., 1618., 1618., 1618., 1618., 1618., 1618., 1618., 1.62586987e+03 ]
