%YAML:1.0
table_background_depth_map: !!opencv-matrix
   rows: 32
   cols: 254
   dt: f
   data: [ 2.22300684e+03, 2.23597144e+03, 2.23686182e+03, 2.23532227e+03, 2.23357202e+03, 2.23575977e+03, 2.22301392e+03, 2223., 2.22285254e+03, 2.21550000e+03, 2.22019482e+03, 2.22295117e+03, 2.22271680e+03, 2.22271680e+03, 2.22031445e+03, 2.22997070e+03, 2223., 2223., 2223., 2.20800195e+03, 2208., 2208., 2208., 2208., 2208., 2208., 2208., 2208., 2208., 2.21180859e+03, 2.22084668e+03, 2.22299951e+03, 2.22299854e+03, 2223., 2.22079346e+03, 2.21692554e+03, 2223., 2.22266675e+03, 2.22179736e+03, 2.20846875e+03, 2208., 2.20811719e+03, 2.20858594e+03, 2208., 2.21222607e+03, 2.22088550e+03, 2.21994629e+03, 2.21991919e+03, 2.22297070e+03, 2.21604980e+03, 2.20800732e+03, 2.20806592e+03, 2.20805859e+03, 2208., 2.21786719e+03, 2.21924976e+03, 2.21919116e+03, 2.21924976e+03, 2.23332886e+03, 2.23343750e+03, 2230., 2.23109448e+03, 2223., 2223., 2223., 2223., 2223., 2223., 2223., 2223., 2223., 2223., 2223., 2223., 2.22297070e+03, 2223., 2223., 2.22301562e+03, 2.22499121e+03, 2223., 2223., 2223., 2223., 2223., 2223., 2223., 2223., 2223., 2223., 2223., 2223., 2.20806250e+03, 2223., 2223., 2223., 2223., 2223., 2223., 2223., 2223., 2.22253125e+03, 2.22253125e+03, 2223., 2223., 2223., 2223., 2223., 2223., 2223., 2223., 2223., 2223., 2223., 2223., 2223., 2223., 2223., 2223., 2223., 2223., 2223., 2223., 2223., 2223., 2223., 2223., 2223., 2.22018750e+03, 2.21977344e+03, 2.20802979e+03, 2.21999756e+03, 2.21221875e+03, 2.21224805e+03, 2.21974854e+03, 2.22112476e+03, 2223., 2223., 2223., 2.22206250e+03, 2223., 2.22253125e+03, 2.21878125e+03, 2.20812549e+03, 2.21101343e+03, 2.21901514e+03, 2.22516846e+03, 2.22528442e+03, 2.22627759e+03, 2.23327759e+03, 2.22276562e+03, 2.22495312e+03, 2.22517188e+03, 2.22276562e+03, 2.23184912e+03, 2237., 2237., 2237., 2237., 2237., 2.23700049e+03, 2.23700684e+03, 2237., 2237., 2237., 2237., 2237., 2237., 2237., 2237., 2.22999951e+03, 2.23522217e+03, 2.23699951e+03, 2.23697217e+03, 2.23699951e+03, 2.23522192e+03, 2.23697217e+03, 2.23697217e+03, 2.23697266e+03, 2.23697266e+03, 2.22655518e+03, 2.22769092e+03, 2.22745752e+03, 2.23514062e+03, 2.23525000e+03, 2.23525000e+03, 2.23525000e+03, 2.23525000e+03, 2.23793750e+03, 2237., 2237., 2.24450415e+03, 2237., 2237., 2.23700366e+03, 2.23701855e+03, 2.23700366e+03, 2.23700366e+03, 2237., 2237., 2237., 2237., 2.23887598e+03, 2237., 2237., 2.23700049e+03, 2.24708716e+03, 2.24710107e+03, 2.25085107e+03, 2.23746875e+03, 2.23771924e+03, 2.25084473e+03, 2.23771899e+03, 2.24334399e+03, 2.24349902e+03, 2.25199927e+03, 2.25397363e+03, 2.26435693e+03, 2.25408398e+03, 2.26154199e+03, 2.25200342e+03, 2252., 2.24633691e+03, 2.24510254e+03, 2237., 2.23746875e+03, 2237., 2237., 2237., 2.23700195e+03, 2.23723438e+03, 2237., 2.23723438e+03, 2.23702930e+03, 2.25179492e+03, 2.25176562e+03, 2.25214380e+03, 2.25586963e+03, 2.25176562e+03, 2.25176562e+03, 2.25266309e+03, 2.25176440e+03, 2.25176562e+03, 2.25176562e+03, 2.25176562e+03, 2.25176562e+03, 2.25176562e+03, 2.25982471e+03, 2.25176562e+03, 2.25176562e+03, 2.25182568e+03, 2.26080542e+03, 2.25200220e+03, 2.25200171e+03, 2.25375000e+03,
       2.23599707e+03, 2.23597339e+03, 2.23597070e+03, 2.23641748e+03, 2.23356860e+03, 2.23181860e+03, 2223., 2.22297070e+03, 2.22237402e+03, 2.21550000e+03, 2.22213062e+03, 2.22296606e+03, 2.22296606e+03, 2.22296606e+03, 2.22224829e+03, 2.22997070e+03, 2.22297070e+03, 2223., 2.20988965e+03, 2208., 2208., 2208., 2208., 2208., 2208., 2.20799976e+03, 2208., 2208., 2208., 2208., 2.22020215e+03, 2.22299951e+03, 2.22299976e+03, 2223., 2.22067456e+03, 2.21550000e+03, 2.22267505e+03, 2.21973340e+03, 2.21973340e+03, 2208., 2208., 2208., 2208., 2208., 2.21175000e+03, 2.21994800e+03, 2.21993335e+03, 2.20853467e+03, 2.22018066e+03, 2.21626929e+03, 2208., 2.20806592e+03, 2208., 2208., 2208., 2.21875342e+03, 2.21857715e+03, 2.21834180e+03, 2.23087500e+03, 2.23021924e+03, 2223., 2223., 2223., 2223., 2223., 2223., 2223., 2223., 2223., 2223., 2223., 2223., 2.22310938e+03, 2223., 2.22297070e+03, 2223., 2223., 2223., 2.22322754e+03, 2.22300854e+03, 2223., 2223., 2223., 2223., 2223., 2223., 2223., 2223., 2223., 2223., 2.21174951e+03, 2208., 2.22107861e+03, 2.21128125e+03, 2223., 2223., 2.22299634e+03, 2223., 2223., 2223., 2.22253125e+03, 2.22252759e+03, 2.21865137e+03, 2.21863745e+03, 2.22239941e+03, 2223., 2223., 2223., 2.22298535e+03, 2.22298535e+03, 2223., 2.22298535e+03, 2223., 2223., 2223., 2223., 2223., 2223., 2223., 2223., 2223., 2223., 2223., 2223., 2223., 2223., 2223., 2223., 2.22112500e+03, 2.21224951e+03, 2.22112500e+03, 2.22106445e+03, 2.22299805e+03, 2.22112305e+03, 2223., 2223., 2223., 2223., 2223., 2223., 2223., 2223., 2.21124780e+03, 2223., 2223., 2.23328125e+03, 2.23678125e+03, 2.23678125e+03, 2.23678125e+03, 2.22528369e+03, 2.23578076e+03, 2.23228174e+03, 2.22300024e+03, 2.23272607e+03, 2237., 2237., 2237., 2237., 2237., 2237., 2237., 2237., 2.23347266e+03, 2.23697266e+03, 2.23697266e+03, 2237., 2237., 2237., 2237., 2237., 2237., 2.23699951e+03, 2.23699951e+03, 2.23699951e+03, 2.23522119e+03, 2.23697217e+03, 2.23697119e+03, 2.23697266e+03, 2.23697266e+03, 2.22679199e+03, 2.23513867e+03, 2.23448145e+03, 2.23514062e+03, 2237., 2237., 2.23525000e+03, 2.23793750e+03, 2.23793750e+03, 2.23793750e+03, 2237., 2.23700415e+03, 2237., 2237., 2.24450366e+03, 2237., 2237., 2237., 2237., 2237., 2237., 2237., 2237., 2237., 2237., 2.23700049e+03, 2.24708740e+03, 2.25083716e+03, 2.25085547e+03, 2.23770459e+03, 2.24145508e+03, 2.25084644e+03, 2.24145459e+03, 2.25084473e+03, 2.25053149e+03, 2.25281274e+03, 2.25397217e+03, 2.26097461e+03, 2.25442578e+03, 2.26504297e+03, 2.25769092e+03, 2252., 2.24633789e+03, 2.24815454e+03, 2.24510254e+03, 2.24498535e+03, 2.23746875e+03, 2.23746875e+03, 2.23770508e+03, 2.23723633e+03, 2.23723438e+03, 2237., 2.23726367e+03, 2.23723438e+03, 2.25201733e+03, 2.25176562e+03, 2.25257300e+03, 2.25959668e+03, 2.25176562e+03, 2.25176562e+03, 2.24728491e+03, 2.25219434e+03, 2.25176562e+03, 2.25176562e+03, 2.25176562e+03, 2.25176562e+03, 2.25176562e+03, 2.25176562e+03, 2.25176562e+03, 2.25176562e+03, 2.25182959e+03, 2.25375122e+03, 2.25397021e+03, 2.25221973e+03, 2.25221973e+03,
       2223., 2223., 2223., 2223., 2223., 2223., 2223., 2.21510742e+03, 2.20893750e+03, 2208., 2.22037061e+03, 2.22295142e+03, 2.22295142e+03, 2.22295142e+03, 2.22224609e+03, 2.22297070e+03, 2.22295605e+03, 2223., 2.20800098e+03, 2208., 2208., 2208., 2208., 2208., 2208., 2208., 2208., 2208., 2208., 2208., 2.21270215e+03, 2.22299951e+03, 2.22085352e+03, 2.22067603e+03, 2.21926831e+03, 2.21550366e+03, 2.21973706e+03, 2.21550000e+03, 2208., 2208., 2208., 2208., 2.21268945e+03, 2.21175195e+03, 2.21178125e+03, 2.22111987e+03, 2.22110522e+03, 2.22016748e+03, 2.22016577e+03, 2.22006323e+03, 2208., 2.20806592e+03, 2.20805908e+03, 2208., 2.20941504e+03, 2.21695898e+03, 2.21695166e+03, 2.21646680e+03, 2.23155859e+03, 2.23068408e+03, 2223., 2230., 2223., 2223., 2223., 2223., 2223., 2223., 2223., 2223., 2223., 2223., 2223., 2223., 2.22297021e+03, 2223., 2223., 2223., 2.22300171e+03, 2223., 2223., 2223., 2223., 2223., 2223., 2223., 2223., 2223., 2223., 2.22299805e+03, 2.21127881e+03, 2208., 2.22107861e+03, 2.20800366e+03, 2.21499854e+03, 2.21188232e+03, 2.21000732e+03, 2.22131592e+03, 2.22229224e+03, 2.22228589e+03, 2.22123022e+03, 2.22213770e+03, 2.20987500e+03, 2.20987500e+03, 2.22146118e+03, 2.22239893e+03, 2.22286768e+03, 2223., 2.22204736e+03, 2.22298486e+03, 2223., 2.22298535e+03, 2223., 2223., 2223., 2223., 2223., 2223., 2223., 2.22305469e+03, 2223., 2223., 2223., 2223., 2223., 2223., 2223., 2.22181152e+03, 2.22089062e+03, 2.20849805e+03, 2.22299805e+03, 2.22104150e+03, 2223., 2.22299805e+03, 2223., 2223., 2223., 2223., 2.21524414e+03, 2.21524561e+03, 2.21524561e+03, 2.21547949e+03, 2.21096777e+03, 2223., 2223., 2.23678125e+03, 2.23678125e+03, 2.23678125e+03, 2.23678125e+03, 2.23327759e+03, 2.23328125e+03, 2.23240625e+03, 2.22473560e+03, 2.23271680e+03, 2237., 2237., 2.23350000e+03, 2237., 2237., 2237., 2.23705859e+03, 2237., 2.23345508e+03, 2.23697241e+03, 2.22997266e+03, 2237., 2237., 2237., 2237., 2.23699951e+03, 2.23699951e+03, 2.23697217e+03, 2.23697217e+03, 2.23697217e+03, 2.23347119e+03, 2.23697217e+03, 2.23697217e+03, 2.23697266e+03, 2.23697192e+03, 2.22909570e+03, 2.23513867e+03, 2.22791992e+03, 2.23525000e+03, 2.23525000e+03, 2.23525000e+03, 2.23524829e+03, 2.23793750e+03, 2.23793750e+03, 2237., 2237., 2237., 2237., 2237., 2237., 2237., 2237., 2237., 2237., 2237., 2237., 2237., 2237., 2237., 2237., 2237., 2.24496875e+03, 2.24496973e+03, 2.24896973e+03, 2.23770459e+03, 2.24521973e+03, 2.25187549e+03, 2.25087573e+03, 2.25243750e+03, 2.25377954e+03, 2.26496094e+03, 2.26496094e+03, 2.26594531e+03, 2.26580859e+03, 2.26597266e+03, 2.26141870e+03, 2.25419434e+03, 2.24680469e+03, 2.25177539e+03, 2.24590820e+03, 2.23746875e+03, 2.23746875e+03, 2.23747070e+03, 2.23770508e+03, 2237., 2237., 2237., 2.23927100e+03, 2.24725366e+03, 2.26315991e+03, 2.25298071e+03, 2.26674585e+03, 2.26228125e+03, 2.25956665e+03, 2.25264062e+03, 2.25835742e+03, 2.25198145e+03, 2.25176562e+03, 2.25176562e+03, 2.25176514e+03, 2.25176562e+03, 2.25176562e+03, 2.25176562e+03, 2.25176562e+03, 2.25176562e+03, 2.25182886e+03, 2.25380908e+03, 2.25380908e+03, 2.25382275e+03, 2.25205566e+03,
       2223., 2223., 2223., 2223., 2.22213696e+03, 2.21884106e+03, 2.21837231e+03, 2208., 2208., 2208., 2.20893750e+03, 2.22224854e+03, 2.21920142e+03, 2.22295605e+03, 2208., 2.21875195e+03, 2.21656543e+03, 2.21656006e+03, 2208., 2208., 2208., 2208., 2208., 2208., 2208., 2208., 2208., 2208., 2208., 2208., 2.22252905e+03, 2.22299976e+03, 2.22088843e+03, 2.22020630e+03, 2.21551465e+03, 2.21550000e+03, 2.21598340e+03, 2.21550000e+03, 2.20846875e+03, 2208., 2.20848535e+03, 2.20800195e+03, 2.21268945e+03, 2.21257227e+03, 2.21219873e+03, 2.22018237e+03, 2.21266772e+03, 2.20800732e+03, 2.20832959e+03, 2.21606396e+03, 2208., 2208., 2.20800049e+03, 2208., 2.20800049e+03, 2208., 2208., 2208., 2223., 2.22368384e+03, 2223., 2223., 2223., 2223., 2.22299976e+03, 2223., 2223., 2223., 2223., 2223., 2223., 2223., 2223., 2223., 2.22250146e+03, 2.22297070e+03, 2.22297070e+03, 2.22297070e+03, 2223., 2223., 2.22300684e+03, 2.22328369e+03, 2.22328345e+03, 2.22300220e+03, 2223., 2223., 2223., 2223., 2223., 2223., 2223., 2.20935229e+03, 2.22299805e+03, 2.20800366e+03, 2.21030469e+03, 2208., 2208., 2208., 2208., 2.20988965e+03, 2.20988965e+03, 2.20987500e+03, 2208., 2.20987500e+03, 2.22122510e+03, 2.22145190e+03, 2.22145093e+03, 2.22204736e+03, 2.21553296e+03, 2.22016211e+03, 2223., 2.22298486e+03, 2223., 2223., 2223., 2223., 2223., 2223., 2223., 2.23313208e+03, 2223., 2.22300049e+03, 2223., 2223., 2.21712061e+03, 2223., 2.22181152e+03, 2.21976025e+03, 2.22088867e+03, 2.21599805e+03, 2.22299805e+03, 2223., 2223., 2223., 2223., 2223., 2.21539453e+03, 2.22298438e+03, 2208., 2208., 2.20800732e+03, 2208., 2208., 2.21082373e+03, 2.21925000e+03, 2.23678125e+03, 2.23678125e+03, 2.23678125e+03, 2.23678125e+03, 2.23328125e+03, 2.23678125e+03, 2.23328125e+03, 2.22581787e+03, 2.23327197e+03, 2237., 2237., 2.23350000e+03, 2237., 2.23350000e+03, 2237., 2.23846655e+03, 2.23705859e+03, 2.23347266e+03, 2.23697266e+03, 2.23697266e+03, 2237., 2237., 2237., 2237., 2237., 2237., 2.23347217e+03, 2.23697217e+03, 2.23697217e+03, 2.23127490e+03, 2.23697119e+03, 2.23697119e+03, 2.23697266e+03, 2.23697266e+03, 2.22734570e+03, 2.22461133e+03, 2.22813892e+03, 2.23514062e+03, 2237., 2237., 2.23513892e+03, 2237., 2237., 2237., 2237., 2.23700049e+03, 2237., 2237., 2237., 2237., 2237., 2237., 2237., 2237., 2.23689014e+03, 2.23689062e+03, 2237., 2237., 2237., 2237., 2237., 2237., 2.23749219e+03, 2.23746924e+03, 2.23746924e+03, 2.25182422e+03, 2.24895386e+03, 2.25265674e+03, 2.26323486e+03, 2.25243799e+03, 2.25237134e+03, 2.26504956e+03, 2.26229492e+03, 2.26580835e+03, 2.26119995e+03, 2252., 2.24630884e+03, 2.24591553e+03, 2.24602539e+03, 2.23746875e+03, 2.23747607e+03, 2.23770605e+03, 2.23700195e+03, 2237., 2237., 2237., 2.23974707e+03, 2.24725342e+03, 2.26228101e+03, 2.25298022e+03, 2.26578101e+03, 2.26228125e+03, 2.25987207e+03, 2.25625781e+03, 2.26570459e+03, 2.25198682e+03, 2.25176562e+03, 2.25176562e+03, 2.25176562e+03, 2.25176562e+03, 2.25176562e+03, 2.25876562e+03, 2.25176562e+03, 2.25176562e+03, 2.25176562e+03, 2252., 2252., 2.25200098e+03, 2.25200098e+03,
       2223., 2223., 2.22299902e+03, 2.22288281e+03, 2208., 2208., 2208., 2208., 2208., 2.20800098e+03, 2.21649902e+03, 2.22273267e+03, 2.22273633e+03, 2.22297070e+03, 2.20805859e+03, 2.21662061e+03, 2208., 2208., 2208., 2208., 2208., 2208., 2208., 2208., 2208., 2208., 2208., 2.20808057e+03, 2.20808057e+03, 2.21209961e+03, 2.22252173e+03, 2.22299780e+03, 2.21925000e+03, 2208., 2.21551465e+03, 2.21550000e+03, 2.21550000e+03, 2208., 2208., 2.21550000e+03, 2208., 2208., 2208., 2.21198438e+03, 2.21198438e+03, 2.22299951e+03, 2223., 2.21266748e+03, 2.21255029e+03, 2.22018262e+03, 2.20800732e+03, 2208., 2.20811768e+03, 2208., 2208., 2208., 2208., 2208., 2223., 2223., 2223., 2223., 2.21673193e+03, 2.21679248e+03, 2208., 2.20811816e+03, 2.22299634e+03, 2.22082837e+03, 2.22299634e+03, 2.22088623e+03, 2.22252686e+03, 2.22252710e+03, 2.22299634e+03, 2223., 2.21857178e+03, 2.22297070e+03, 2.22297070e+03, 2.22297070e+03, 2223., 2223., 2.22300928e+03, 2.22328369e+03, 2.22328369e+03, 2.22328247e+03, 2.22300049e+03, 2.22300049e+03, 2223., 2223., 2223., 2223., 2223., 2.21877930e+03, 2.22299805e+03, 2.21116211e+03, 2.22252930e+03, 2.20995605e+03, 2208., 2208., 2.20801465e+03, 2.21384644e+03, 2.22135547e+03, 2.22216650e+03, 2.20987500e+03, 2.20987500e+03, 2.22216138e+03, 2.22232983e+03, 2.22285742e+03, 2.22092358e+03, 2208., 2.21975195e+03, 2.22299951e+03, 2223., 2223., 2223., 2223., 2230., 2.23008472e+03, 2.22397363e+03, 2.23317188e+03, 2.23328125e+03, 2.23328125e+03, 2.23350000e+03, 2223., 2223., 2223., 2223., 2.21992480e+03, 2.21981152e+03, 2223., 2.21974902e+03, 2223., 2.22299072e+03, 2223., 2.22293286e+03, 2.22299878e+03, 2.22291846e+03, 2.21175000e+03, 2.21175000e+03, 2208., 2208., 2208., 2208., 2208., 2.20800732e+03, 2.21491211e+03, 2.23678125e+03, 2.23771875e+03, 2.23865625e+03, 2.23866992e+03, 2.23327759e+03, 2.23678125e+03, 2.23328125e+03, 2.22276562e+03, 2.22451660e+03, 2.23344531e+03, 2.23350000e+03, 2.23306226e+03, 2.23350000e+03, 2.23347266e+03, 2.23350000e+03, 2.24062915e+03, 2.24058398e+03, 2.23752734e+03, 2.23746875e+03, 2.23697266e+03, 2237., 2237., 2237., 2237., 2237., 2237., 2.23697217e+03, 2.23699951e+03, 2.23699951e+03, 2.23697119e+03, 2.23697119e+03, 2.23697119e+03, 2.23697266e+03, 2.23697241e+03, 2.22301758e+03, 2.22301758e+03, 2223., 2.22395093e+03, 2.23492017e+03, 2.22441919e+03, 2.22393042e+03, 2.23667017e+03, 2.23793750e+03, 2.23793750e+03, 2.23700049e+03, 2.24543823e+03, 2237., 2.24543774e+03, 2.24450000e+03, 2237., 2237., 2237., 2237., 2237., 2237., 2237., 2237., 2237., 2237., 2237., 2237., 2237., 2237., 2.23700146e+03, 2237., 2.25193945e+03, 2.25192822e+03, 2.25979443e+03, 2.26634814e+03, 2.26156323e+03, 2.24136572e+03, 2.25077539e+03, 2.25077930e+03, 2.24701465e+03, 2.25179102e+03, 2.25179370e+03, 2.23861084e+03, 2.23219092e+03, 2.24461914e+03, 2.23700171e+03, 2.24630347e+03, 2.24625684e+03, 2.23700195e+03, 2237., 2237., 2.23700195e+03, 2.24724902e+03, 2.24725000e+03, 2.26222241e+03, 2.25198438e+03, 2.25522217e+03, 2.25176562e+03, 2.25275781e+03, 2.26343359e+03, 2.26790674e+03, 2.25203076e+03, 2.25176562e+03, 2.25176562e+03, 2.25176562e+03, 2.25176562e+03, 2.25176562e+03, 2.26314111e+03, 2.25176562e+03, 2.25176562e+03, 2.25129688e+03, 2.24682178e+03, 2.25054224e+03, 2.25090137e+03, 2.24813379e+03,
       2.21550000e+03, 2208., 2208., 2208., 2208., 2208., 2208., 2208., 2.20800098e+03, 2.21879932e+03, 2.22276562e+03, 2223., 2223., 2223., 2.20894116e+03, 2.21643750e+03, 2208., 2208., 2208., 2208., 2208., 2.20794531e+03, 2208., 2208., 2208., 2208., 2.20800366e+03, 2208., 2208., 2.21186572e+03, 2.21835742e+03, 2.22021460e+03, 2208., 2208., 2.21550000e+03, 2.21645215e+03, 2.21550000e+03, 2.20600317e+03, 2.20600342e+03, 2.20625000e+03, 2208., 2208., 2208., 2208., 2.21175000e+03, 1.98274561e+03, 2.22299634e+03, 2.21266797e+03, 2.21255029e+03, 2.22004907e+03, 2208., 2208., 2.20800049e+03, 2208., 2208., 2208., 2208., 2.21550000e+03, 2.22300684e+03, 2.23090918e+03, 2223., 2223., 2208., 2208., 2208., 2208., 2.22034473e+03, 2.20811719e+03, 2.21187720e+03, 2.21284424e+03, 2.21285889e+03, 2.21285913e+03, 2.21502710e+03, 2.21306421e+03, 2208., 2.22238037e+03, 2.20800757e+03, 2.20800732e+03, 2223., 2223., 2223., 2.22328271e+03, 2.22305713e+03, 2.22300049e+03, 2223., 2.22300049e+03, 2223., 2223., 2223., 2.22299805e+03, 2.22299805e+03, 2.21866089e+03, 2.22252930e+03, 2.21394482e+03, 2.22144116e+03, 2.20807324e+03, 2208., 2208., 2208., 2.21363965e+03, 2.20988965e+03, 2.21741943e+03, 2208., 2208., 2208., 2208., 2.21550366e+03, 2.20800366e+03, 2208., 2.21550000e+03, 2.22098999e+03, 2.22299951e+03, 2223., 2223., 2223., 2230., 2.23326709e+03, 2.23326733e+03, 2.23350000e+03, 2237., 2237., 2237., 2.23183203e+03, 2223., 2223., 1.71162720e+03, 1.70309119e+03, 1.70306274e+03, 2223., 2223., 2223., 2223., 1.74007300e+03, 1.71433728e+03, 2.15837500e+03, 2223., 2.21362500e+03, 2208., 2208., 2208., 2208., 2208., 2208., 2208., 2.22241211e+03, 2.23678125e+03, 2.23966895e+03, 2.23983496e+03, 2.23963574e+03, 1.73206494e+03, 2.16989160e+03, 2.23678125e+03, 2.22276562e+03, 2.22276562e+03, 2.23299390e+03, 2.23306250e+03, 2.23265723e+03, 2.23350000e+03, 2.23345874e+03, 2.08416406e+03, 2.09948730e+03, 2.25243750e+03, 2.12417700e+03, 2.25240820e+03, 2.23941748e+03, 2.24145312e+03, 2.24288818e+03, 2237., 2237., 2.22496973e+03, 2223., 2.22299951e+03, 2.22301318e+03, 2.23088818e+03, 2.22298438e+03, 2.22298438e+03, 2.22999463e+03, 2.23347095e+03, 2.23336279e+03, 2.22301758e+03, 2.22301416e+03, 1.82210754e+03, 1.82181091e+03, 2.10617676e+03, 2.22393726e+03, 2223., 2.22441577e+03, 2.23793750e+03, 2.23793799e+03, 2237., 2.23793799e+03, 2237., 2.23793750e+03, 2.24450000e+03, 2237., 2237., 2237., 2.23700098e+03, 2237., 2237., 2237., 2237., 2237., 2237., 2.22310962e+03, 2.22573950e+03, 2.22301172e+03, 2.23699829e+03, 2.23699829e+03, 2237., 2.23957886e+03, 2.25003735e+03, 2.26637500e+03, 2.26673779e+03, 2.26236255e+03, 2.23730469e+03, 2.24878613e+03, 2.16262842e+03, 2.24614062e+03, 2.23700366e+03, 2.23700366e+03, 2.23082007e+03, 2.23691772e+03, 2.23397827e+03, 2.23263037e+03, 2.24497168e+03, 2.24824780e+03, 2.23916992e+03, 2.23911084e+03, 2.23897559e+03, 2.24764551e+03, 2.24733594e+03, 2.24720605e+03, 2.26595703e+03, 2.25373438e+03, 2.25421997e+03, 2.24332788e+03, 1.74341919e+03, 1.73581213e+03, 1.74114050e+03, 2.25176611e+03, 2.25176562e+03, 2.25176562e+03, 2.25176562e+03, 2.25237427e+03, 2.25180225e+03, 2.26576294e+03, 2.25176562e+03, 2.25176562e+03, 2.25176660e+03, 2.25146875e+03, 2.24403125e+03, 2.25198975e+03, 2.25572144e+03,
       2.22286719e+03, 2.22239478e+03, 2.21550757e+03, 2208., 2208., 2.20777783e+03, 2208., 2208., 2.21134326e+03, 2.21134326e+03, 2223., 2223., 2223., 2223., 2.20895215e+03, 2.21643750e+03, 2208., 2208., 2208., 2.20100171e+03, 2.20209692e+03, 2.19400098e+03, 2208., 2208., 2208., 2208., 2.20407666e+03, 2.20800366e+03, 2.20803296e+03, 2.20999194e+03, 2.22229639e+03, 2.22229688e+03, 2.21278101e+03, 2.21185669e+03, 2.21983398e+03, 2.22077148e+03, 2.21602734e+03, 2.21375000e+03, 2.20512842e+03, 2.20600342e+03, 2.21550000e+03, 2.21925098e+03, 2.20239819e+03, 1.72302466e+03, 1.71896265e+03, 1.73150464e+03, 1.75445276e+03, 1.74249036e+03, 1.76016992e+03, 1.76819507e+03, 1.73661377e+03, 1.80407520e+03, 2.17635254e+03, 2.15730933e+03, 1.73342749e+03, 1.73956226e+03, 1.72406262e+03, 1.92536719e+03, 2.21649023e+03, 2.21670996e+03, 2.22299438e+03, 2.21573584e+03, 2.20802930e+03, 2208., 2208., 2208., 2.20812012e+03, 2208., 2.20800098e+03, 2.20800269e+03, 2.21285889e+03, 2.21285889e+03, 2.21297607e+03, 2.20894751e+03, 2.20800732e+03, 2.22299609e+03, 2.20800928e+03, 2.20800928e+03, 2223., 2223., 2.22328369e+03, 2.22372119e+03, 2.22328247e+03, 2.22300049e+03, 2.22321924e+03, 2.22321924e+03, 2223., 2223., 2.22299731e+03, 2.22241138e+03, 2.21866138e+03, 2.21650342e+03, 2.22049194e+03, 2.20806592e+03, 2.20801465e+03, 2208., 2.20848340e+03, 2208., 2.21926465e+03, 2.22120190e+03, 2.22135571e+03, 2.22120166e+03, 2208., 2208., 2208., 2208., 2208., 2.20799878e+03, 2.20168359e+03, 2.20799170e+03, 2.21995703e+03, 2.22299951e+03, 2223., 2223., 2223., 2.23051978e+03, 2.23350000e+03, 2.23350000e+03, 2237., 2237., 2237., 1706., 1.70706909e+03, 1706., 1706., 1.71050049e+03, 1706., 1.70521863e+03, 1.71496045e+03, 1.72293872e+03, 1715., 1715., 1.71050000e+03, 1706., 1706., 1706., 1706., 1706., 1.70183398e+03, 1.97023206e+03, 2.20988281e+03, 2.20988281e+03, 2.20988232e+03, 2.21081934e+03, 2223., 2.24362354e+03, 1.87517188e+03, 1.73893750e+03, 1.72262500e+03, 1.71489453e+03, 1.71548242e+03, 2.16904004e+03, 2.13398291e+03, 1.72287500e+03, 2.11615039e+03, 1732., 1.73207031e+03, 1.74071875e+03, 1.73901331e+03, 1.73929456e+03, 1741., 1741., 1.73443701e+03, 1.79615381e+03, 2.08738379e+03, 2.24289868e+03, 2252., 2.24263354e+03, 2237., 2.22847510e+03, 2223., 1.96841772e+03, 1.92086511e+03, 1.73970093e+03, 1.73724390e+03, 1.73970093e+03, 1.73569800e+03, 1.73579468e+03, 1.73200439e+03, 1732., 1732., 1732., 1732., 1732., 1732., 1.72303943e+03, 1723., 1.72287524e+03, 1.79389990e+03, 2237., 2.23793750e+03, 2.23793750e+03, 2.24746436e+03, 2.24988330e+03, 2.24543848e+03, 2237., 2.24450000e+03, 2.24929883e+03, 2.25188257e+03, 2.25000391e+03, 2237., 2237., 2237., 2237., 2.22371558e+03, 1.97629102e+03, 1.80695703e+03, 1.74096265e+03, 1.74099780e+03, 1.73228296e+03, 1.99707983e+03, 2.18727466e+03, 2.19894971e+03, 2.16572607e+03, 1862., 2.16649829e+03, 1.73382898e+03, 1.73326611e+03, 1.73200049e+03, 1.73199780e+03, 1.72490283e+03, 1.72602356e+03, 1.72749353e+03, 1.73432520e+03, 1.73425024e+03, 1.74056763e+03, 1.74056787e+03, 1741., 1.73200500e+03, 1.73200439e+03, 1.74099976e+03, 1.73200439e+03, 1732., 1.73510779e+03, 1.73440479e+03, 1.73440027e+03, 1.74535718e+03, 1.74985938e+03, 1.74339087e+03, 1.75239087e+03, 1.74985938e+03, 1.95780884e+03, 1.87697705e+03, 1.75433289e+03, 1.74985938e+03, 2.26524316e+03, 2.26578125e+03, 2.25176562e+03, 2.25216479e+03, 1.74986157e+03, 1.74549866e+03, 1.74550024e+03, 2.23752856e+03, 2.23638672e+03,
       2.22298438e+03, 2.22233252e+03, 2208., 2208., 2.20721729e+03, 2.19665576e+03, 2208., 2.21081543e+03, 2223., 2.22606543e+03, 2.23677783e+03, 2237., 2.22388916e+03, 2.23094727e+03, 2.19122021e+03, 1.70599988e+03, 2.20799609e+03, 2.03543311e+03, 2.20364111e+03, 1.71893726e+03, 1715., 1715., 1.85935327e+03, 1.88826416e+03, 1.84115063e+03, 1.85014758e+03, 1.71064087e+03, 1.70399951e+03, 1.70624512e+03, 1.70614087e+03, 1.70398779e+03, 1.70395654e+03, 1.70315576e+03, 1.70306445e+03, 2.21179028e+03, 2.21289331e+03, 2.20778125e+03, 2.20512817e+03, 2.19217188e+03, 1.84345044e+03, 1.71541821e+03, 1.71500049e+03, 1.71903662e+03, 1719., 1.71485278e+03, 1719., 1.72003540e+03, 1.72750439e+03, 1.73550293e+03, 1.73593640e+03, 1.72876379e+03, 1.72874402e+03, 1.72754834e+03, 1.72753088e+03, 1.72760156e+03, 1723., 1.72099756e+03, 1.72073096e+03, 1.72750903e+03, 1.86947632e+03, 2.15419336e+03, 2223., 2.22098926e+03, 2.20800049e+03, 1.94882690e+03, 2.20415039e+03, 2.20800195e+03, 2.20777783e+03, 2.19857666e+03, 2.20558887e+03, 2.21274170e+03, 2.21280029e+03, 2.21272705e+03, 2.21272705e+03, 2.20136694e+03, 1.72960095e+03, 1732., 1.72974878e+03, 1.72820752e+03, 1723., 1.71990479e+03, 1.71550781e+03, 1.77235400e+03, 2.21243506e+03, 2.01964697e+03, 2.07865991e+03, 2.22299731e+03, 2.21362207e+03, 2.20805859e+03, 2208., 2208., 2208., 2208., 2.20756250e+03, 2208., 2.11435913e+03, 1.70001221e+03, 1.70825879e+03, 1.70601404e+03, 1.97060120e+03, 1715., 1706., 1705., 1.69850562e+03, 2.20799609e+03, 2.20799194e+03, 2.20798877e+03, 2.07985156e+03, 1.74502515e+03, 1.75337000e+03, 1.75433887e+03, 1.97299951e+03, 1973., 1.97299988e+03, 1.92239722e+03, 1.97650000e+03, 2.23350000e+03, 2.23348608e+03, 2237., 1.71134460e+03, 1706., 1706., 1706., 1706., 1.70600439e+03, 1706., 1706., 1706., 1715., 1.72012866e+03, 1715., 1715., 1.71283972e+03, 1706., 1.70825000e+03, 1706., 1706., 1706., 1706., 1706., 1.70649219e+03, 1.71500098e+03, 1.71514233e+03, 1.71649219e+03, 1.71501660e+03, 1.72415723e+03, 1.72753223e+03, 1.72287500e+03, 1.72287451e+03, 1.71535938e+03, 1.71635938e+03, 1.72261450e+03, 1.72287500e+03, 1.72287500e+03, 1723., 1732., 1732., 1.73425452e+03, 1732., 1732., 1.73915344e+03, 1.73929407e+03, 1732., 1.72525867e+03, 1.72526331e+03, 1723., 1.72680566e+03, 1.72680579e+03, 1.72299878e+03, 1.71612708e+03, 1.72426807e+03, 1.73143750e+03, 1732., 1732., 1732., 1732., 1732., 1732., 1732., 1732., 1732., 1.72609375e+03, 1.72750000e+03, 1.72750000e+03, 1732., 1.72308203e+03, 1.72300891e+03, 1723., 1723., 1.72750000e+03, 1.72750000e+03, 1.72298340e+03, 1.72300623e+03, 1.72968787e+03, 2.12849976e+03, 2.08052490e+03, 2.01504614e+03, 2.08120508e+03, 1.73200793e+03, 1.73200793e+03, 1.84970532e+03, 1.83107788e+03, 1.73826294e+03, 1732., 1.73207031e+03, 1741., 1.73982007e+03, 1.73967908e+03, 1.73306958e+03, 1732., 1.73228296e+03, 1732., 1.74095593e+03, 1.73523499e+03, 1732., 1.73312500e+03, 1.73609766e+03, 1.73611414e+03, 1.73312500e+03, 1732., 1.72749780e+03, 1.72719775e+03, 1732., 1.73425439e+03, 1732., 1.73434290e+03, 1.73411377e+03, 1.74026147e+03, 1.73200439e+03, 1.73228613e+03, 1.74092969e+03, 1.73300696e+03, 1.73298938e+03, 1.74085938e+03, 1.74114062e+03, 1.74001587e+03, 1.74985938e+03, 1.74985938e+03, 1.74518347e+03, 1.74985938e+03, 1.74985925e+03, 1.74985938e+03, 1.74985938e+03, 1.74985938e+03, 1.74978857e+03, 1.74985938e+03, 1.74998413e+03, 2.08096143e+03, 1.74985938e+03, 1.74985938e+03, 1.75001758e+03, 1.75030103e+03, 1.75432410e+03, 1.75351025e+03,
       1715., 1715., 1715., 1.71275000e+03, 1.70824988e+03, 1.71271484e+03, 1.71275000e+03, 1.71271484e+03, 1.70770508e+03, 1.70358179e+03, 1.69976660e+03, 2.22951611e+03, 1.71768896e+03, 1.70693494e+03, 1.70918555e+03, 1.70599976e+03, 1.70182227e+03, 1.70599988e+03, 1.70909595e+03, 1715., 1706., 1706., 1.70599988e+03, 1.71215918e+03, 1.71099902e+03, 1.71217798e+03, 1.70621094e+03, 1706., 1706., 1706., 1.70398779e+03, 1.70315088e+03, 1.70318701e+03, 1.69901587e+03, 1.69914380e+03, 1706., 1.70498401e+03, 1706., 1715., 1715., 1715., 1.71499988e+03, 1715., 1715., 1715., 1715., 1715., 1723., 1.72750000e+03, 1.72866040e+03, 1723., 1723., 1723., 1723., 1723., 1723., 1.71500781e+03, 1.72003943e+03, 1723., 1723., 1.72750024e+03, 1.72992603e+03, 1723., 1723., 1723., 1.72322205e+03, 1.83873340e+03, 2.07198779e+03, 2.06438525e+03, 2.04715173e+03, 1.99975757e+03, 2.07817993e+03, 2.08228687e+03, 2.06440869e+03, 1.72299988e+03, 1.72356250e+03, 1.73199878e+03, 1.72356250e+03, 1723., 1723., 1.71990234e+03, 1.71550000e+03, 1.69846777e+03, 1.69450330e+03, 1.68099902e+03, 1.68882959e+03, 1690., 1.69000391e+03, 1.76181055e+03, 1.69806055e+03, 1.70017773e+03, 1.69818188e+03, 1.70018506e+03, 2.20766943e+03, 1.82812793e+03, 1715., 1.70902332e+03, 1717., 1715., 1715., 1715., 1.71050000e+03, 1715., 1.70600171e+03, 1.70600610e+03, 1.70600610e+03, 1.71471631e+03, 1715., 1715., 1.72262280e+03, 1723., 1723., 1723., 1.72299988e+03, 1.71950122e+03, 1.72050122e+03, 1.71499988e+03, 1.71486072e+03, 1.71135339e+03, 1.71134460e+03, 1706., 1706., 1.71383655e+03, 1706., 1.70601404e+03, 1.70601367e+03, 1.71050439e+03, 1.71405054e+03, 1.72220703e+03, 1.72250000e+03, 1715., 1715., 1.71499121e+03, 1.71499121e+03, 1.71386621e+03, 1.70840955e+03, 1.70844922e+03, 1.70619458e+03, 1.70648914e+03, 1.70705408e+03, 1715., 1.71514429e+03, 1.71548828e+03, 1.72099219e+03, 1.71514209e+03, 1.72303271e+03, 1.72753223e+03, 1.72287500e+03, 1.72287500e+03, 1.72261121e+03, 1.72287439e+03, 1.72287439e+03, 1.72287500e+03, 1.72287500e+03, 1723., 1732., 1732., 1732., 1.73143726e+03, 1732., 1732., 1732., 1.73031165e+03, 1.72299829e+03, 1.72299976e+03, 1.72299878e+03, 1.72300928e+03, 1723., 1.72299756e+03, 1.72141528e+03, 1.72539954e+03, 1.73143750e+03, 1732., 1732., 1732., 1732., 1732., 1732., 1732., 1732., 1732., 1.73087500e+03, 1732., 1.72975000e+03, 1732., 1732., 1.72749890e+03, 1.72750000e+03, 1.72589697e+03, 1.73198242e+03, 1.73198242e+03, 1.72750000e+03, 1.72969666e+03, 1732., 1732., 1732., 1732., 1.72973218e+03, 1.73199976e+03, 1732., 1732., 1732., 1.74097144e+03, 1.73839917e+03, 1.73319543e+03, 1741., 1741., 1741., 1741., 1.73987280e+03, 1741., 1.73533521e+03, 1.74099109e+03, 1.73530664e+03, 1732., 1732., 1.73312549e+03, 1732., 1732., 1732., 1.72747852e+03, 1.73199780e+03, 1732., 1732., 1732., 1.73200439e+03, 1.73200439e+03, 1.73202258e+03, 1.73200439e+03, 1.73230383e+03, 1741., 1.73713037e+03, 1.73530249e+03, 1.74085938e+03, 1.74340576e+03, 1.74340576e+03, 1.74985938e+03, 1.74985938e+03, 1.74525391e+03, 1.74985938e+03, 1.74452588e+03, 1.74467090e+03, 1.74465979e+03, 1.74497900e+03, 1.74272437e+03, 1.74985938e+03, 1.74985938e+03, 1.74985938e+03, 1.74986157e+03, 1.74986157e+03, 1.75128540e+03, 1.75213989e+03, 1759., 1.75382678e+03,
       1715., 1715., 1715., 1715., 1715., 1.71275000e+03, 1.71271484e+03, 1.71228418e+03, 1.70770618e+03, 1.70382971e+03, 1.70383179e+03, 1.70640210e+03, 1.71481067e+03, 1.70693494e+03, 1.70918555e+03, 1706., 1.70184680e+03, 1706., 1.70600220e+03, 1.70895557e+03, 1.70825220e+03, 1706., 1706., 1.71216040e+03, 1.71105310e+03, 1.71218701e+03, 1.70621094e+03, 1706., 1.70607031e+03, 1706., 1706., 1706., 1706., 1.70593701e+03, 1706., 1706., 1.70485901e+03, 1706., 1.71366138e+03, 1.71387268e+03, 1.71363940e+03, 1.71371411e+03, 1.71387500e+03, 1.71330603e+03, 1.70839941e+03, 1.71296008e+03, 1.70840405e+03, 1715., 1.72116846e+03, 1723., 1723., 1723., 1.72017041e+03, 1.71923193e+03, 1721., 1715., 1715., 1715., 1723., 1.72293750e+03, 1723., 1723., 1723., 1.72299951e+03, 1723., 1.72149268e+03, 1.72299463e+03, 1.72191016e+03, 1.72152063e+03, 1.71514526e+03, 1.71499158e+03, 1.71314478e+03, 1.71371045e+03, 1715., 1.71582056e+03, 1723., 1723., 1723., 1.71896753e+03, 1723., 1.71576172e+03, 1.71500391e+03, 1.71136023e+03, 1.70656799e+03, 1698., 1698., 1698., 1698., 1.69910059e+03, 1698., 1.70000098e+03, 1698., 1698., 1.70600549e+03, 1.70881274e+03, 1.71750012e+03, 1717., 1.72163220e+03, 1.72150623e+03, 1722., 1723., 1715., 1715., 1.71496484e+03, 1.71060315e+03, 1.71383752e+03, 1715., 1715., 1715., 1.71501562e+03, 1.72161450e+03, 1.72287427e+03, 1723., 1.72255396e+03, 1715., 1715., 1715., 1.71155823e+03, 1.70656250e+03, 1.70656250e+03, 1706., 1706., 1.71496484e+03, 1.71373438e+03, 1.71274939e+03, 1.71116724e+03, 1.71257349e+03, 1715., 1723., 1723., 1715., 1715., 1715., 1715., 1715., 1715., 1715., 1715., 1715., 1715., 1.71500098e+03, 1.71564233e+03, 1.72074023e+03, 1721., 1.71623633e+03, 1.73156836e+03, 1.73043848e+03, 1.72753223e+03, 1.72793750e+03, 1.72287500e+03, 1.72343750e+03, 1.72287500e+03, 1.72287500e+03, 1.72287500e+03, 1723., 1.72345508e+03, 1.72918750e+03, 1.73143750e+03, 1.73143726e+03, 1732., 1732., 1732., 1732., 1723., 1723., 1723., 1723., 1723., 1.72299780e+03, 1.71514062e+03, 1723., 1723., 1.72300012e+03, 1.72749561e+03, 1.72558789e+03, 1.72616357e+03, 1.72750000e+03, 1732., 1732., 1732., 1732., 1732., 1732., 1.72525000e+03, 1732., 1732., 1.72750000e+03, 1732., 1732., 1732., 1732., 1732., 1732., 1732., 1732., 1732., 1732., 1732., 1732., 1732., 1732., 1732., 1732., 1.73319531e+03, 1.73207031e+03, 1741., 1.73292944e+03, 1741., 1.73307007e+03, 1.73235156e+03, 1732., 1732., 1.73284436e+03, 1732., 1732., 1732., 1732., 1732., 1732., 1732., 1732., 1732., 1732., 1732., 1732., 1.73913293e+03, 1.73200439e+03, 1.73202197e+03, 1.73202197e+03, 1.73202258e+03, 1.74022632e+03, 1.73655786e+03, 1.73200500e+03, 1.74085938e+03, 1.74311035e+03, 1.74310962e+03, 1.74985938e+03, 1.74975378e+03, 1.74451587e+03, 1.74451587e+03, 1.74085938e+03, 1.74085938e+03, 1.74085938e+03, 1.74085938e+03, 1.74085938e+03, 1.74527100e+03, 1.74985938e+03, 1.74528882e+03, 1.74985938e+03, 1.74985938e+03, 1.75014062e+03, 1.75016040e+03, 1.75191846e+03, 1.75014062e+03,
       1.71679724e+03, 1715., 1715., 1715., 1.71048999e+03, 1.70742480e+03, 1.70714258e+03, 1.70768750e+03, 1.70601758e+03, 1.70583203e+03, 1.70643359e+03, 1.70656250e+03, 1.71256958e+03, 1.70918494e+03, 1715., 1.70853235e+03, 1706., 1.70853345e+03, 1.70853491e+03, 1.70993750e+03, 1.70993750e+03, 1715., 1.71443750e+03, 1715., 1715., 1715., 1.71074536e+03, 1.70607031e+03, 1.71184399e+03, 1.70600220e+03, 1706., 1706., 1706., 1706., 1.70712500e+03, 1.71378394e+03, 1706., 1706., 1.71139331e+03, 1.71380151e+03, 1.71387231e+03, 1.71360376e+03, 1.71371582e+03, 1706., 1.70825879e+03, 1.71301282e+03, 1.71293921e+03, 1715., 1715., 1715., 1715., 1715., 1715., 1715., 1715., 1715., 1.71499951e+03, 1.71107178e+03, 1.71900781e+03, 1.71913281e+03, 1.71913599e+03, 1723., 1.71516602e+03, 1.71916614e+03, 1.71916418e+03, 1.71916406e+03, 1.72249463e+03, 1.71903418e+03, 1.71910181e+03, 1.71903906e+03, 1715., 1.71485107e+03, 1.71485767e+03, 1715., 1715., 1.72185242e+03, 1723., 1.72284277e+03, 1.71676172e+03, 1.72096875e+03, 1.71976270e+03, 1.71584277e+03, 1715., 1715., 1.70657458e+03, 1.70585938e+03, 1706., 1.70573438e+03, 1706., 1706., 1.70175000e+03, 1.70175000e+03, 1.70175000e+03, 1.71471875e+03, 1.71468140e+03, 1.71750012e+03, 1.71750000e+03, 1.72170837e+03, 1723., 1723., 1723., 1715., 1.71500415e+03, 1715., 1715., 1.71246643e+03, 1715., 1715., 1715., 1715., 1715., 1.71905566e+03, 1.72256177e+03, 1.72150317e+03, 1715., 1715., 1715., 1715., 1.71275000e+03, 1.71143164e+03, 1706., 1.70603223e+03, 1715., 1.71162500e+03, 1.70680798e+03, 1.70603210e+03, 1.70602307e+03, 1.71440234e+03, 1.71500195e+03, 1715., 1.71499121e+03, 1.71499121e+03, 1.71456482e+03, 1.71470996e+03, 1.71499121e+03, 1.71358496e+03, 1.71471875e+03, 1.70908276e+03, 1715., 1.70824048e+03, 1715., 1.71500098e+03, 1.71500146e+03, 1721., 1.71673572e+03, 1.73185938e+03, 1.73157007e+03, 1.73156763e+03, 1.73185791e+03, 1.72570312e+03, 1.73069385e+03, 1.72343750e+03, 1.72343750e+03, 1.72287500e+03, 1723., 1.72408850e+03, 1.72412476e+03, 1.73199976e+03, 1.72524866e+03, 1732., 1732., 1732., 1.73192969e+03, 1723., 1723., 1723., 1723., 1.72299805e+03, 1.72249292e+03, 1.71513281e+03, 1.72293164e+03, 1723., 1723., 1.73143311e+03, 1.72749561e+03, 1732., 1732., 1732., 1732., 1732., 1732., 1732., 1732., 1.72525000e+03, 1732., 1732., 1732., 1732., 1732., 1732., 1732., 1732., 1732., 1732., 1732., 1732., 1732., 1732., 1732., 1732., 1732., 1732., 1732., 1.73312500e+03, 1732., 1.73404431e+03, 1.73235156e+03, 1732., 1732., 1732., 1732., 1732., 1732., 1732., 1732., 1732., 1732., 1732., 1732., 1732., 1732., 1732., 1732., 1732., 1732., 1.73652197e+03, 1.73202197e+03, 1.73877197e+03, 1.73202246e+03, 1.74029688e+03, 1741., 1741., 1741., 1.74085938e+03, 1.74311475e+03, 1.74339526e+03, 1.74985938e+03, 1.74452466e+03, 1.74085938e+03, 1.74085962e+03, 1.74085938e+03, 1.74085938e+03, 1.74085938e+03, 1.74085938e+03, 1.74085938e+03, 1.74142188e+03, 1.74753906e+03, 1.74104199e+03, 1.74479688e+03, 1.74985938e+03, 1750., 1750., 1.75000439e+03, 1750.,
       1.71678564e+03, 1715., 1715., 1715., 1.71049011e+03, 1.70712500e+03, 1706., 1706., 1.70712500e+03, 1.70587109e+03, 1.70656250e+03, 1.70656250e+03, 1.71481958e+03, 1.71485901e+03, 1715., 1.70918274e+03, 1706., 1.70853345e+03, 1.70879919e+03, 1.71443750e+03, 1715., 1715., 1715., 1715., 1715., 1715., 1.71190625e+03, 1.70600256e+03, 1.71180005e+03, 1.70715063e+03, 1706., 1.70600110e+03, 1.70714368e+03, 1.70999829e+03, 1.70771289e+03, 1715., 1706., 1706., 1706., 1.71050989e+03, 1.71086597e+03, 1.71050989e+03, 1.71304565e+03, 1706., 1706., 1706., 1.70600439e+03, 1.71050659e+03, 1.71050439e+03, 1715., 1715., 1715., 1715., 1715., 1715., 1.71272974e+03, 1.71110669e+03, 1.70600879e+03, 1.71500781e+03, 1.71913281e+03, 1.71916528e+03, 1.71916772e+03, 1.71516406e+03, 1.71916711e+03, 1.72122766e+03, 1.71916406e+03, 1.72049243e+03, 1.71500073e+03, 1.71910156e+03, 1.71903906e+03, 1715., 1.71497412e+03, 1.71485327e+03, 1715., 1715., 1715., 1.71550781e+03, 1715., 1.71550000e+03, 1.71551953e+03, 1.71576270e+03, 1.71587451e+03, 1715., 1715., 1715., 1.70600330e+03, 1.70604285e+03, 1.70600110e+03, 1.70723853e+03, 1706., 1706., 1706., 1706., 1.71021875e+03, 1.71018079e+03, 1715., 1715., 1.71750000e+03, 1.72173132e+03, 1723., 1723., 1715., 1.71868640e+03, 1715., 1715., 1715., 1715., 1715., 1715., 1715., 1715., 1.72105957e+03, 1.72256177e+03, 1.72103613e+03, 1715., 1715., 1715., 1715., 1715., 1715., 1.70658533e+03, 1715., 1715., 1715., 1715., 1.71088672e+03, 1.70603430e+03, 1.71440234e+03, 1715., 1715., 1.71442871e+03, 1715., 1.70825037e+03, 1.71014380e+03, 1715., 1.71387488e+03, 1715., 1.70613843e+03, 1.71260938e+03, 1.71115186e+03, 1715., 1715., 1715., 1.71500098e+03, 1.71500098e+03, 1.73139575e+03, 1.73150366e+03, 1.72584375e+03, 1.73049048e+03, 1.73048645e+03, 1.73052979e+03, 1.72345312e+03, 1.72287500e+03, 1.72287500e+03, 1723., 1.72386816e+03, 1.72330127e+03, 1.72334521e+03, 1.72348633e+03, 1.73192395e+03, 1.73199976e+03, 1732., 1732., 1.72342188e+03, 1.72539062e+03, 1723., 1723., 1723., 1.72299805e+03, 1.71516418e+03, 1.72293140e+03, 1723., 1.72299414e+03, 1723., 1723., 1723., 1.72335400e+03, 1.72562732e+03, 1.72308789e+03, 1.72412451e+03, 1732., 1732., 1732., 1.72496655e+03, 1.72468750e+03, 1732., 1.72749890e+03, 1732., 1732., 1.72750000e+03, 1732., 1732., 1732., 1732., 1732., 1732., 1732., 1732., 1732., 1732., 1732., 1732., 1732., 1732., 1732., 1.73240894e+03, 1.73228125e+03, 1732., 1732., 1732., 1732., 1732., 1732., 1732., 1732., 1732., 1732., 1732., 1732., 1732., 1732., 1732., 1732., 1732., 1732., 1.73913647e+03, 1.73202197e+03, 1.73652209e+03, 1.73659302e+03, 1.74085059e+03, 1741., 1741., 1741., 1.74085938e+03, 1.74940747e+03, 1.74969885e+03, 1.74985938e+03, 1.74962292e+03, 1.74198438e+03, 1.74198438e+03, 1.74085938e+03, 1.74085938e+03, 1.74085938e+03, 1.74085938e+03, 1.74085938e+03, 1.74085938e+03, 1.74212939e+03, 1.74329932e+03, 1.74985938e+03, 1.74985938e+03, 1750., 1750., 1.75014722e+03, 1750.,
       1.71684814e+03, 1715., 1715., 1715., 1.70742407e+03, 1706., 1.69901562e+03, 1.69950000e+03, 1.70182983e+03, 1.70383167e+03, 1.70583203e+03, 1706., 1.70656360e+03, 1.71368555e+03, 1.71499561e+03, 1.70922070e+03, 1706., 1706., 1.71047791e+03, 1.70993311e+03, 1.71499561e+03, 1.71499561e+03, 1715., 1715., 1.71443750e+03, 1.70608154e+03, 1706., 1706., 1.70600220e+03, 1.70714478e+03, 1706., 1.70143750e+03, 1.70593750e+03, 1.70718103e+03, 1.70803809e+03, 1.71499951e+03, 1706., 1706., 1706., 1.71367847e+03, 1.71499707e+03, 1.71499683e+03, 1.71499780e+03, 1706., 1706., 1706., 1706., 1.70600439e+03, 1.70600439e+03, 1.71050659e+03, 1.71054175e+03, 1.71387500e+03, 1715., 1.71485938e+03, 1715., 1.71485498e+03, 1.71110706e+03, 1.70600879e+03, 1.71500781e+03, 1715., 1.71500781e+03, 1715., 1715., 1715., 1715., 1715., 1715., 1.71499951e+03, 1715., 1.71500781e+03, 1715., 1.71330420e+03, 1706., 1.70629028e+03, 1706., 1.71496484e+03, 1715., 1.71046484e+03, 1715., 1715., 1715., 1715., 1715., 1715., 1.71034131e+03, 1706., 1.70604736e+03, 1.70724707e+03, 1.71050000e+03, 1.70738770e+03, 1706., 1706., 1706., 1715., 1.70776221e+03, 1.71471875e+03, 1.71471875e+03, 1715., 1.72268750e+03, 1723., 1723., 1723., 1723., 1.72002808e+03, 1.71980933e+03, 1715., 1715., 1.71901953e+03, 1715., 1715., 1715., 1.71501855e+03, 1715., 1715., 1715., 1715., 1715., 1715., 1.71471655e+03, 1.70683154e+03, 1706., 1.71368823e+03, 1715., 1.71158984e+03, 1.71158984e+03, 1.70601758e+03, 1.70601978e+03, 1.71440234e+03, 1715., 1715., 1.70825854e+03, 1.71443750e+03, 1.70825366e+03, 1.70825366e+03, 1.71470117e+03, 1.70600110e+03, 1.70611133e+03, 1.70613818e+03, 1.71260938e+03, 1.71144409e+03, 1715., 1715., 1715., 1723., 1.72187048e+03, 1.73143750e+03, 1.73101562e+03, 1.72973633e+03, 1.72598840e+03, 1.72570325e+03, 1.72599133e+03, 1.72287500e+03, 1.72287500e+03, 1.72187476e+03, 1.72187476e+03, 1723., 1723., 1723., 1723., 1723., 1.72329895e+03, 1.73132397e+03, 1732., 1.72343970e+03, 1.72628723e+03, 1723., 1723., 1723., 1.72299780e+03, 1.71518079e+03, 1.72216516e+03, 1.72299719e+03, 1.72022791e+03, 1723., 1723., 1723., 1723., 1723., 1723., 1723., 1.72301758e+03, 1.72524939e+03, 1732., 1.72890625e+03, 1732., 1732., 1732., 1732., 1732., 1.73199951e+03, 1732., 1732., 1732., 1732., 1732., 1732., 1732., 1.72776160e+03, 1.72940735e+03, 1732., 1732., 1732., 1732., 1732., 1732., 1732., 1732., 1732., 1732., 1732., 1.73087500e+03, 1732., 1732., 1732., 1732., 1732., 1732., 1732., 1732., 1732., 1732., 1732., 1.73199988e+03, 1732., 1732., 1.73652209e+03, 1732., 1.73202209e+03, 1.73202258e+03, 1.73831909e+03, 1.74085938e+03, 1.74099988e+03, 1741., 1.74933813e+03, 1.74985693e+03, 1.74985938e+03, 1.74985938e+03, 1.74985706e+03, 1.74984351e+03, 1.74085938e+03, 1.74085938e+03, 1.74085938e+03, 1.74085938e+03, 1.74085938e+03, 1.74085938e+03, 1.74085938e+03, 1.74086389e+03, 1.74534070e+03, 1.74985938e+03, 1.74985938e+03, 1750., 1750., 1750., 1750.,
       1.71603137e+03, 1715., 1715., 1715., 1.70967480e+03, 1706., 1.70151587e+03, 1.70151758e+03, 1.70587500e+03, 1.70587500e+03, 1706., 1.70656250e+03, 1.71220618e+03, 1.71372070e+03, 1715., 1.71485913e+03, 1.71087024e+03, 1.71368555e+03, 1.71499561e+03, 1.70832336e+03, 1.71499561e+03, 1.71499561e+03, 1715., 1715., 1.71283667e+03, 1706., 1706., 1706., 1706., 1706., 1.69905200e+03, 1.69900391e+03, 1.69956042e+03, 1.70712500e+03, 1.70770508e+03, 1.71000488e+03, 1706., 1706., 1.70656689e+03, 1.71499731e+03, 1.71499731e+03, 1.71499731e+03, 1715., 1.71177454e+03, 1706., 1706., 1.71050439e+03, 1.70600439e+03, 1.70600439e+03, 1.70600659e+03, 1706., 1.70600659e+03, 1.71054175e+03, 1.70600220e+03, 1715., 1.70692517e+03, 1.70600879e+03, 1.70600879e+03, 1.71901025e+03, 1715., 1.71500781e+03, 1715., 1.71498242e+03, 1.71498242e+03, 1.71499951e+03, 1.71216357e+03, 1.71443140e+03, 1.71442920e+03, 1.71442896e+03, 1715., 1715., 1.71499670e+03, 1.70630811e+03, 1.71313391e+03, 1.70975891e+03, 1.71496484e+03, 1715., 1.70856348e+03, 1715., 1715., 1715., 1715., 1.71485913e+03, 1.71485913e+03, 1.70719751e+03, 1706., 1706., 1706., 1.70949731e+03, 1706., 1706., 1706., 1706., 1.70777124e+03, 1706., 1.70600439e+03, 1.70600439e+03, 1715., 1715., 1.71501196e+03, 1.72299805e+03, 1.71500781e+03, 1723., 1.71500024e+03, 1.71502759e+03, 1715., 1715., 1.72268628e+03, 1.71601562e+03, 1.71501587e+03, 1715., 1715., 1715., 1715., 1715., 1.70715283e+03, 1.71464612e+03, 1715., 1.71470654e+03, 1.71358154e+03, 1.70658496e+03, 1715., 1715., 1715., 1715., 1.71387500e+03, 1715., 1.71501562e+03, 1.71803052e+03, 1.71501758e+03, 1.71443750e+03, 1715., 1.71443701e+03, 1715., 1.71021863e+03, 1.70600110e+03, 1.70867163e+03, 1.70638818e+03, 1.71148145e+03, 1.71134521e+03, 1.71485938e+03, 1715., 1.71500098e+03, 1723., 1.72262500e+03, 1.73143701e+03, 1.73101562e+03, 1.72548547e+03, 1.72598438e+03, 1.72343750e+03, 1.72343750e+03, 1.72287500e+03, 1.72287476e+03, 1.72174805e+03, 1.72187427e+03, 1723., 1723., 1723., 1723., 1723., 1.72329883e+03, 1.72328125e+03, 1.73189099e+03, 1.72343945e+03, 1.72314062e+03, 1.72299976e+03, 1.72199780e+03, 1723., 1.72299780e+03, 1.72299780e+03, 1.72224719e+03, 1.72299805e+03, 1.72224756e+03, 1723., 1723., 1723., 1723., 1723., 1723., 1723., 1.72301758e+03, 1732., 1732., 1732., 1732., 1732., 1732., 1732., 1732., 1732., 1732., 1732., 1732., 1732., 1732., 1.73199451e+03, 1.72997644e+03, 1723., 1723., 1.72877661e+03, 1732., 1732., 1732., 1732., 1732., 1732., 1732., 1732., 1732., 1732., 1732., 1732., 1732., 1732., 1732., 1.73312500e+03, 1732., 1732., 1.73312500e+03, 1732., 1732., 1732., 1.73199780e+03, 1.73129639e+03, 1732., 1732., 1732., 1732., 1732., 1.73200232e+03, 1.73966382e+03, 1.74078857e+03, 1741., 1.74931067e+03, 1.74985693e+03, 1.74985938e+03, 1.74985938e+03, 1.74985938e+03, 1.74985938e+03, 1.74980859e+03, 1.74085938e+03, 1.74388330e+03, 1.74085938e+03, 1.74085938e+03, 1.74085938e+03, 1.74142627e+03, 1.74100452e+03, 1.74325684e+03, 1.74358289e+03, 1.74530493e+03, 1.74546375e+03, 1750., 1750., 1750.,
       1715., 1715., 1715., 1715., 1.70967468e+03, 1706., 1.70132910e+03, 1699., 1.70587500e+03, 1.70587500e+03, 1.70587500e+03, 1706., 1.70600110e+03, 1706., 1.71484375e+03, 1.71090625e+03, 1706., 1.70607043e+03, 1.71499561e+03, 1706., 1.70728345e+03, 1.71017810e+03, 1.71415063e+03, 1715., 1.70603735e+03, 1706., 1706., 1706., 1706., 1706., 1.69904712e+03, 1.69803125e+03, 1.69904712e+03, 1.70593750e+03, 1.70770947e+03, 1.70996094e+03, 1706., 1706., 1706., 1.71496216e+03, 1.71496216e+03, 1.71499731e+03, 1.71325684e+03, 1706., 1706., 1706., 1.71097131e+03, 1706., 1706., 1706., 1706., 1706., 1.70600220e+03, 1706., 1.70692542e+03, 1.70805481e+03, 1.70604395e+03, 1.70600879e+03, 1.71500781e+03, 1.71500781e+03, 1715., 1715., 1.70618457e+03, 1.70625488e+03, 1.71328967e+03, 1.70621973e+03, 1.71075488e+03, 1.71441162e+03, 1.71442920e+03, 1715., 1715., 1715., 1.70602661e+03, 1.70855798e+03, 1.70863269e+03, 1.70861523e+03, 1.70629016e+03, 1706., 1.71485938e+03, 1715., 1715., 1715., 1.71485913e+03, 1706., 1.70719751e+03, 1706., 1706., 1.70712720e+03, 1.70724634e+03, 1.70719775e+03, 1706., 1706., 1706., 1.70720105e+03, 1706., 1706., 1706., 1.70966064e+03, 1715., 1715., 1.71778931e+03, 1715., 1723., 1.71604321e+03, 1.72287402e+03, 1715., 1715., 1.72264282e+03, 1715., 1715., 1715., 1715., 1715., 1715., 1715., 1.70600012e+03, 1.70996875e+03, 1715., 1.71470776e+03, 1.71470764e+03, 1.71358154e+03, 1715., 1.71500024e+03, 1715., 1.71557837e+03, 1715., 1715., 1.71501562e+03, 1.71501782e+03, 1715., 1.70993750e+03, 1.71443750e+03, 1.71429639e+03, 1.71443750e+03, 1.70829956e+03, 1.70600110e+03, 1.71485938e+03, 1.71428784e+03, 1.71260645e+03, 1.70712634e+03, 1.71482349e+03, 1.71485938e+03, 1715., 1.72283594e+03, 1715., 1.72287500e+03, 1.72287500e+03, 1.72287500e+03, 1.72287500e+03, 1.72287500e+03, 1.72287500e+03, 1.72287451e+03, 1.72287476e+03, 1.72287476e+03, 1723., 1723., 1.72300232e+03, 1723., 1.72301782e+03, 1723., 1.72554883e+03, 1723., 1.73188599e+03, 1.72568970e+03, 1.72568945e+03, 1723., 1723., 1.72314941e+03, 1.72314062e+03, 1723., 1723., 1723., 1723., 1.72314062e+03, 1723., 1723., 1723., 1723., 1723., 1723., 1723., 1.73199060e+03, 1732., 1723., 1723., 1.72412610e+03, 1723., 1723., 1.73199951e+03, 1723., 1.73199951e+03, 1732., 1.73199951e+03, 1.73199951e+03, 1732., 1.72967322e+03, 1.72427441e+03, 1723., 1723., 1.72300879e+03, 1732., 1732., 1732., 1732., 1732., 1732., 1732., 1732., 1.72750000e+03, 1.72750000e+03, 1.72750000e+03, 1732., 1732., 1732., 1.73312939e+03, 1.73316455e+03, 1732., 1.73228125e+03, 1732., 1732., 1732., 1732., 1732., 1.73143701e+03, 1732., 1732., 1732., 1732., 1.73312500e+03, 1.73312512e+03, 1.73964624e+03, 1.73978662e+03, 1741., 1.74310938e+03, 1.74983911e+03, 1.74985938e+03, 1.74985706e+03, 1.74958264e+03, 1.74233594e+03, 1.74085938e+03, 1.74085938e+03, 1.74142188e+03, 1.74085938e+03, 1.74085938e+03, 1.74085938e+03, 1.74367627e+03, 1.74100452e+03, 1.74329846e+03, 1.74316895e+03, 1.74086621e+03, 1.74227271e+03, 1.74998132e+03, 1.74543652e+03, 1.74569226e+03,
       1715., 1715., 1715., 1.71035938e+03, 1.70628125e+03, 1706., 1.70129932e+03, 1.69926807e+03, 1.70587500e+03, 1.70587500e+03, 1.70587500e+03, 1.70628125e+03, 1.71080212e+03, 1.71079993e+03, 1.71499561e+03, 1715., 1.71104639e+03, 1.71273682e+03, 1.71274561e+03, 1706., 1.70735364e+03, 1.71467810e+03, 1.71016821e+03, 1.71451880e+03, 1706., 1706., 1706., 1.70587500e+03, 1706., 1.69930188e+03, 1698., 1698., 1.69800024e+03, 1.70104028e+03, 1706., 1.70712610e+03, 1706., 1706., 1706., 1.71221558e+03, 1.71478198e+03, 1.71496191e+03, 1.70600891e+03, 1706., 1706., 1706., 1.71104175e+03, 1706., 1706., 1706., 1706., 1.70723291e+03, 1.71499988e+03, 1.70691626e+03, 1.71485938e+03, 1.71035815e+03, 1.71371521e+03, 1.70600879e+03, 1715., 1715., 1715., 1.71132068e+03, 1706., 1.70618457e+03, 1.71075708e+03, 1.70614062e+03, 1.70625708e+03, 1.71075732e+03, 1.71469946e+03, 1.71513281e+03, 1715., 1715., 1715., 1715., 1715., 1715., 1706., 1706., 1706., 1706., 1706., 1.70607031e+03, 1706., 1706., 1706., 1706., 1706., 1.70979224e+03, 1.70971143e+03, 1.70958948e+03, 1706., 1706., 1706., 1706., 1706., 1706., 1706., 1706., 1.70744141e+03, 1715., 1715., 1715., 1723., 1.71603735e+03, 1.71606152e+03, 1715., 1715., 1.71862695e+03, 1715., 1715., 1715., 1715., 1715., 1715., 1715., 1.70715186e+03, 1.71464832e+03, 1715., 1.71470654e+03, 1.71126123e+03, 1.71126123e+03, 1715., 1715., 1.71507837e+03, 1.71899170e+03, 1715., 1.71508154e+03, 1.72249951e+03, 1.71808154e+03, 1.71501562e+03, 1715., 1715., 1.71443750e+03, 1.71049927e+03, 1.70829980e+03, 1.70600110e+03, 1.71936365e+03, 1.72139600e+03, 1.71626160e+03, 1.71165063e+03, 1.71194067e+03, 1.71485938e+03, 1.71485938e+03, 1.72001770e+03, 1715., 1.72287500e+03, 1.72287500e+03, 1.72287500e+03, 1.72287500e+03, 1.72287500e+03, 1.72287500e+03, 1.72287500e+03, 1.72287500e+03, 1.72287500e+03, 1723., 1723., 1.72301770e+03, 1.72300024e+03, 1.72331006e+03, 1.72329883e+03, 1.72738818e+03, 1723., 1.73189429e+03, 1.72681470e+03, 1.72539075e+03, 1723., 1723., 1.72315381e+03, 1.72315381e+03, 1.72300879e+03, 1.72300879e+03, 1.72322522e+03, 1723., 1.72378809e+03, 1723., 1.72307031e+03, 1723., 1723., 1723., 1723., 1723., 1.72769470e+03, 1732., 1723., 1723., 1.72428442e+03, 1723., 1.72309351e+03, 1.72917786e+03, 1723., 1.72973596e+03, 1732., 1.73199951e+03, 1.72974951e+03, 1732., 1.72314062e+03, 1.72314062e+03, 1.72764062e+03, 1723., 1.73113220e+03, 1732., 1732., 1732., 1732., 1732., 1732., 1732., 1732., 1732., 1732., 1.72750000e+03, 1732., 1732., 1732., 1.73200439e+03, 1.73204028e+03, 1.73228125e+03, 1.73228125e+03, 1732., 1732., 1732., 1732., 1.73199890e+03, 1.72747681e+03, 1.73182422e+03, 1.73200928e+03, 1.73650000e+03, 1732., 1.73767798e+03, 1.73316016e+03, 1.73936389e+03, 1.73964624e+03, 1.74085938e+03, 1.74427844e+03, 1.74970007e+03, 1.74984180e+03, 1.74969775e+03, 1.74226575e+03, 1.74198438e+03, 1.74085938e+03, 1.74085938e+03, 1.74235352e+03, 1.74085938e+03, 1.74114966e+03, 1.74243909e+03, 1.74985938e+03, 1.74982422e+03, 1.74817078e+03, 1.74542261e+03, 1.74100439e+03, 1741., 1741., 1741., 1741.,
       1715., 1715., 1715., 1.70712500e+03, 1706., 1706., 1.70129968e+03, 1.70126807e+03, 1.70587476e+03, 1706., 1706., 1.70600220e+03, 1.70600220e+03, 1706., 1.71162500e+03, 1715., 1.70767432e+03, 1.71275000e+03, 1715., 1715., 1715., 1715., 1715., 1715., 1.71450366e+03, 1706., 1706., 1706., 1706., 1.70580994e+03, 1698., 1.69793555e+03, 1698., 1.70104419e+03, 1706., 1706., 1.70599988e+03, 1706., 1706., 1.71218774e+03, 1.71165259e+03, 1.71207007e+03, 1706., 1706., 1706., 1.70600110e+03, 1.71106030e+03, 1706., 1706., 1706., 1.70248438e+03, 1.70716040e+03, 1.70635376e+03, 1706., 1706., 1706., 1706., 1706., 1715., 1.71061743e+03, 1.71132568e+03, 1706., 1.70598438e+03, 1.70614062e+03, 1.70614062e+03, 1.70614062e+03, 1.71075708e+03, 1.71470032e+03, 1.71471875e+03, 1.71917969e+03, 1715., 1715., 1715., 1715., 1.71499780e+03, 1715., 1.71405591e+03, 1706., 1.70603577e+03, 1706., 1706., 1.70610608e+03, 1706., 1706., 1706., 1706., 1706., 1.70972571e+03, 1.70972571e+03, 1.70993665e+03, 1.70600012e+03, 1706., 1706., 1706., 1706., 1706., 1706., 1706., 1706., 1.70635754e+03, 1715., 1715., 1.71503931e+03, 1715., 1.71610181e+03, 1715., 1715., 1715., 1715., 1715., 1715., 1715., 1715., 1715., 1715., 1.70995557e+03, 1.71492847e+03, 1715., 1.71463623e+03, 1.71238623e+03, 1.71498779e+03, 1.71499121e+03, 1715., 1715., 1.71557837e+03, 1715., 1.71501562e+03, 1.71508057e+03, 1715., 1715., 1715., 1715., 1715., 1.70824988e+03, 1.71049988e+03, 1.70602344e+03, 1.71950000e+03, 1.71950000e+03, 1.71885938e+03, 1.71485925e+03, 1.71419067e+03, 1.71485938e+03, 1715., 1720., 1715., 1.72287500e+03, 1.72287500e+03, 1.72287500e+03, 1.72287500e+03, 1.72287500e+03, 1.72287500e+03, 1.72249072e+03, 1.72286426e+03, 1.72287500e+03, 1723., 1723., 1.72300012e+03, 1.72301111e+03, 1.73076428e+03, 1.72328125e+03, 1.72626099e+03, 1723., 1.72575342e+03, 1.72567212e+03, 1.72567200e+03, 1723., 1723., 1.72540405e+03, 1.72315381e+03, 1723., 1.72300879e+03, 1.72300879e+03, 1723., 1.72322546e+03, 1723., 1.72307031e+03, 1723., 1.72307031e+03, 1723., 1723., 1.72299219e+03, 1723., 1.72692847e+03, 1723., 1723., 1723., 1723., 1723., 1.72337036e+03, 1723., 1723., 1.72974072e+03, 1.72974072e+03, 1.72974951e+03, 1732., 1.72974121e+03, 1.72436023e+03, 1732., 1732., 1732., 1732., 1732., 1732., 1732., 1732., 1732., 1732., 1.72748242e+03, 1.72750000e+03, 1.72741968e+03, 1.72742847e+03, 1732., 1732., 1732., 1.73200439e+03, 1.73358643e+03, 1732., 1732., 1732., 1732., 1732., 1732., 1732., 1.73199890e+03, 1.73198132e+03, 1732., 1732., 1.73650879e+03, 1741., 1.73821448e+03, 1732., 1732., 1.73650891e+03, 1.74085938e+03, 1.74519751e+03, 1.74984058e+03, 1.74237561e+03, 1.74237122e+03, 1.74085938e+03, 1.74085938e+03, 1.74085938e+03, 1.74121094e+03, 1.74085938e+03, 1.74085938e+03, 1.74085938e+03, 1.74915234e+03, 1.74250293e+03, 1.74985938e+03, 1.74087805e+03, 1.74085938e+03, 1741., 1741., 1741., 1741.,
       1715., 1.70802222e+03, 1.71027551e+03, 1706., 1706., 1.70587500e+03, 1706., 1706., 1706., 1706., 1706., 1.71099878e+03, 1.71498157e+03, 1.71075269e+03, 1715., 1715., 1.70965112e+03, 1715., 1715., 1715., 1715., 1715., 1715., 1715., 1.71336218e+03, 1706., 1706., 1706., 1706., 1.69928906e+03, 1698., 1.69793750e+03, 1.69903247e+03, 1.70593738e+03, 1706., 1.70772412e+03, 1706., 1706., 1706., 1.71267700e+03, 1.71499731e+03, 1.71499731e+03, 1706., 1706., 1706., 1.70607593e+03, 1.71499780e+03, 1.70607031e+03, 1706., 1706., 1.70297632e+03, 1.70716040e+03, 1706., 1.70587500e+03, 1706., 1706., 1706., 1706., 1715., 1715., 1.71357617e+03, 1706., 1706., 1.70614282e+03, 1.70614282e+03, 1.70621313e+03, 1.71470093e+03, 1715., 1715., 1.72124927e+03, 1715., 1715., 1715., 1.71498242e+03, 1.71040991e+03, 1.71434717e+03, 1706., 1.70598218e+03, 1706., 1.70547437e+03, 1706., 1706., 1706., 1706., 1706., 1706., 1706., 1.70972571e+03, 1.70971802e+03, 1.70993750e+03, 1.70747241e+03, 1706., 1706., 1706., 1706., 1.70538147e+03, 1.70547607e+03, 1.69925000e+03, 1.70125659e+03, 1706., 1.70712500e+03, 1715., 1715., 1715., 1715., 1715., 1.71466968e+03, 1715., 1.71471436e+03, 1.71017871e+03, 1.71017871e+03, 1715., 1.71467920e+03, 1715., 1715., 1.70714282e+03, 1.70601758e+03, 1.71498792e+03, 1706., 1706., 1.70600012e+03, 1.70600049e+03, 1.71106348e+03, 1715., 1715., 1715., 1715., 1723., 1715., 1715., 1715., 1715., 1715., 1.71049951e+03, 1.71962512e+03, 1.70863379e+03, 1.71950000e+03, 1719., 1.71885950e+03, 1715., 1.71485938e+03, 1.71500391e+03, 1715., 1.71600391e+03, 1715., 1.72275000e+03, 1.72287500e+03, 1.72287500e+03, 1.72287500e+03, 1.71639697e+03, 1.71646484e+03, 1.71646606e+03, 1.71546509e+03, 1.72287500e+03, 1723., 1723., 1.72300012e+03, 1.72401099e+03, 1732., 1723., 1.73188928e+03, 1.72525000e+03, 1.72525012e+03, 1.72567200e+03, 1.72567200e+03, 1723., 1723., 1.72596985e+03, 1.72315063e+03, 1.72300879e+03, 1.72378369e+03, 1.72378333e+03, 1.72307910e+03, 1.72378809e+03, 1723., 1.72307031e+03, 1723., 1.72307031e+03, 1723., 1723., 1.72299219e+03, 1723., 1.72354932e+03, 1723., 1723., 1723., 1723., 1723., 1723., 1723., 1723., 1723., 1723., 1723., 1.72303748e+03, 1723., 1.72419763e+03, 1732., 1732., 1732., 1732., 1732., 1732., 1732., 1732., 1732., 1732., 1.72539722e+03, 1.73192847e+03, 1.72615356e+03, 1.72742847e+03, 1732., 1732., 1732., 1.73314697e+03, 1.73417603e+03, 1732., 1732., 1732., 1732., 1732., 1732., 1.73196472e+03, 1.73196472e+03, 1.73198132e+03, 1732., 1732., 1732., 1732., 1732., 1732., 1732., 1732., 1.74085938e+03, 1.74463440e+03, 1.74983984e+03, 1.74251184e+03, 1.74233606e+03, 1.74205481e+03, 1.74085938e+03, 1.74085938e+03, 1.74247681e+03, 1.74985938e+03, 1.74985938e+03, 1.74985938e+03, 1.74985938e+03, 1.74985938e+03, 1.74985938e+03, 1.74950781e+03, 1.74085938e+03, 1741., 1741., 1741., 1741.,
       1715., 1715., 1715., 1.70771167e+03, 1706., 1706., 1706., 1706., 1706., 1706., 1706., 1706., 1.71064722e+03, 1706., 1706., 1.70614062e+03, 1706., 1.70622021e+03, 1.70796423e+03, 1.70796655e+03, 1.70673096e+03, 1.71355359e+03, 1.71352319e+03, 1.70825110e+03, 1706., 1.70593750e+03, 1.70593750e+03, 1.69827661e+03, 1.70581250e+03, 1.69929419e+03, 1698., 1698., 1.70598999e+03, 1706., 1706., 1.71224158e+03, 1706., 1.70600024e+03, 1706., 1.71220557e+03, 1.71106299e+03, 1.71190649e+03, 1.71078149e+03, 1706., 1.70599805e+03, 1.70607141e+03, 1.71499780e+03, 1.70607642e+03, 1706., 1706., 1.70498438e+03, 1.70712500e+03, 1706., 1.70587500e+03, 1706., 1.70587500e+03, 1706., 1706., 1.71906250e+03, 1.71485938e+03, 1715., 1.70607910e+03, 1706., 1.70621313e+03, 1.70614062e+03, 1.70614062e+03, 1.70846423e+03, 1715., 1715., 1715., 1715., 1715., 1.71491211e+03, 1.70885229e+03, 1.70603955e+03, 1.70941455e+03, 1706., 1.70141125e+03, 1.70148218e+03, 1.70134778e+03, 1.70134888e+03, 1706., 1706., 1.70436450e+03, 1.70550000e+03, 1706., 1706., 1.70629907e+03, 1.70603528e+03, 1.70603528e+03, 1.70603516e+03, 1706., 1706., 1.70550000e+03, 1.70547437e+03, 1698., 1698., 1698., 1698., 1706., 1706., 1.71478906e+03, 1715., 1715., 1715., 1.71471826e+03, 1.70714282e+03, 1.71471802e+03, 1.70728345e+03, 1.70614062e+03, 1.71017859e+03, 1.71017896e+03, 1.70960596e+03, 1.71016858e+03, 1715., 1.70712524e+03, 1706., 1.71498779e+03, 1706., 1.70599023e+03, 1.70600012e+03, 1706., 1.70601770e+03, 1.71498462e+03, 1715., 1715., 1.71501562e+03, 1723., 1.71501562e+03, 1715., 1715., 1715., 1715., 1715., 1.72192053e+03, 1.71910156e+03, 1.71550000e+03, 1715., 1.71885938e+03, 1715., 1.71426172e+03, 1715., 1715., 1715., 1715., 1.72070581e+03, 1.72287500e+03, 1.72286182e+03, 1.72048621e+03, 1.71485938e+03, 1.71485938e+03, 1.71485938e+03, 1.71485938e+03, 1.72087012e+03, 1723., 1723., 1723., 1.72300012e+03, 1.73132764e+03, 1723., 1.73196045e+03, 1.72314075e+03, 1.72300012e+03, 1.72314075e+03, 1723., 1723., 1.72300012e+03, 1.72596765e+03, 1.72300110e+03, 1723., 1.72357239e+03, 1.72300989e+03, 1.72300110e+03, 1.72307031e+03, 1.72196606e+03, 1.72196289e+03, 1.71723462e+03, 1.71799805e+03, 1.71749634e+03, 1.71748877e+03, 1.71700391e+03, 1.72249805e+03, 1723., 1723., 1723., 1723., 1723., 1723., 1723., 1723., 1723., 1723., 1723., 1723., 1723., 1723., 1723., 1.72916968e+03, 1.73198132e+03, 1732., 1732., 1732., 1732., 1732., 1732., 1732., 1732., 1.72525659e+03, 1.72557300e+03, 1.72611792e+03, 1.73192969e+03, 1732., 1732., 1.73314258e+03, 1.73371167e+03, 1.73642603e+03, 1732., 1732., 1732., 1732., 1732., 1732., 1.72225342e+03, 1.72751953e+03, 1.73199890e+03, 1.73199890e+03, 1732., 1732., 1732., 1732., 1732., 1732., 1732., 1.74085938e+03, 1.74199329e+03, 1.74205481e+03, 1.74205481e+03, 1.74198450e+03, 1.74085938e+03, 1.74086377e+03, 1.74085938e+03, 1.74085938e+03, 1.74087695e+03, 1.74085938e+03, 1.74929688e+03, 1.74985938e+03, 1.74985938e+03, 1.74967920e+03, 1.74482507e+03, 1.74085938e+03, 1741., 1741., 1741., 1741.,
       1.71485925e+03, 1.70601758e+03, 1715., 1.71035034e+03, 1.70631970e+03, 1706., 1706., 1.70600220e+03, 1706., 1.70600659e+03, 1706., 1706., 1706., 1706., 1706., 1706., 1.70199939e+03, 1706., 1706., 1706., 1706., 1706., 1706., 1706., 1706., 1706., 1706., 1.70581189e+03, 1706., 1.69929028e+03, 1698., 1698., 1.70542712e+03, 1.70598035e+03, 1706., 1706., 1706., 1706., 1706., 1.71249561e+03, 1.71106299e+03, 1.71136182e+03, 1.71496265e+03, 1706., 1706., 1.70636084e+03, 1.71499780e+03, 1.70875745e+03, 1.70607056e+03, 1706., 1706., 1706., 1.70916553e+03, 1706., 1706., 1706., 1706., 1706., 1715., 1.71345312e+03, 1.70664990e+03, 1.70607031e+03, 1.70598438e+03, 1706., 1706., 1706., 1.70899487e+03, 1.71471875e+03, 1715., 1715., 1715., 1715., 1715., 1.70913354e+03, 1706., 1706., 1.70598218e+03, 1.70147375e+03, 1.70134778e+03, 1.69803125e+03, 1.69809375e+03, 1.70549976e+03, 1.70549976e+03, 1.70449951e+03, 1.70550000e+03, 1706., 1706., 1.70600012e+03, 1.70603528e+03, 1.70605408e+03, 1.70603516e+03, 1706., 1706., 1.70550000e+03, 1.70549194e+03, 1.70538013e+03, 1698., 1698., 1698., 1706., 1706., 1706., 1706., 1706., 1706., 1706., 1706., 1706., 1706., 1706., 1.70615820e+03, 1706., 1706., 1.70712500e+03, 1715., 1.70714282e+03, 1706., 1706., 1.70599707e+03, 1.70592676e+03, 1706., 1706., 1706., 1.71385815e+03, 1715., 1.71499561e+03, 1715., 1.72299561e+03, 1715., 1715., 1715., 1715., 1715., 1715., 1.71563281e+03, 1.70600549e+03, 1715., 1715., 1715., 1715., 1715., 1715., 1715., 1715., 1715., 1.72287500e+03, 1.72287500e+03, 1.72287500e+03, 1.72086121e+03, 1.71485938e+03, 1.71485938e+03, 1.71485938e+03, 1.71485938e+03, 1.72055493e+03, 1723., 1723., 1723., 1.72300012e+03, 1.73199561e+03, 1723., 1732., 1.72743372e+03, 1.72539294e+03, 1.72342212e+03, 1723., 1.72300012e+03, 1.72300122e+03, 1.72370422e+03, 1723., 1723., 1.72300110e+03, 1.72300989e+03, 1.72300110e+03, 1723., 1.71871216e+03, 1.71771265e+03, 1717., 1.71710938e+03, 1717., 1715., 1715., 1.71734412e+03, 1.72299219e+03, 1.71849023e+03, 1.72250000e+03, 1723., 1723., 1723., 1723., 1723., 1723., 1723., 1723., 1723., 1723., 1723., 1723., 1.72424768e+03, 1.73199976e+03, 1732., 1732., 1732., 1732., 1732., 1732., 1732., 1.73198242e+03, 1.72525659e+03, 1.72656616e+03, 1.73192847e+03, 1732., 1732., 1732., 1.73628772e+03, 1.73317993e+03, 1.74092969e+03, 1732., 1732., 1732., 1.72735767e+03, 1.72745483e+03, 1732., 1.71538037e+03, 1.71537891e+03, 1.72298413e+03, 1723., 1.72751221e+03, 1.72781104e+03, 1732., 1732., 1732., 1.73200891e+03, 1.73200012e+03, 1.74198438e+03, 1.74085938e+03, 1.74086401e+03, 1.74085938e+03, 1.74085938e+03, 1.74085938e+03, 1.74086377e+03, 1.74086377e+03, 1.74086377e+03, 1.74086377e+03, 1.74088135e+03, 1.74085938e+03, 1.74985938e+03, 1.74233630e+03, 1.74458643e+03, 1.74311194e+03, 1.74085938e+03, 1741., 1741., 1741., 1741.,
       1.70825085e+03, 1706., 1715., 1715., 1715., 1715., 1715., 1715., 1715., 1715., 1.70600439e+03, 1706., 1.70600220e+03, 1706., 1706., 1706., 1698., 1.69821521e+03, 1.69821863e+03, 1702., 1.69921875e+03, 1706., 1.69815552e+03, 1.70028052e+03, 1.70496826e+03, 1706., 1706., 1698., 1698., 1698., 1698., 1698., 1.70599219e+03, 1.70462537e+03, 1.70592566e+03, 1706., 1706., 1706., 1706., 1.71137109e+03, 1.70685303e+03, 1.70684375e+03, 1.71257080e+03, 1706., 1706., 1706., 1.71499780e+03, 1.70622620e+03, 1706., 1.70600037e+03, 1706., 1706., 1715., 1706., 1706., 1.70587500e+03, 1706., 1706., 1.71485938e+03, 1706., 1706., 1706., 1.69869507e+03, 1706., 1706., 1706., 1.70895972e+03, 1.71469214e+03, 1715., 1715., 1715., 1715., 1715., 1.71040991e+03, 1706., 1.70828516e+03, 1706., 1706., 1.70148999e+03, 1.70136353e+03, 1.70148853e+03, 1706., 1706., 1706., 1706., 1.70600110e+03, 1706., 1.70979602e+03, 1.70604065e+03, 1.70600110e+03, 1.70604077e+03, 1706., 1706., 1.70550000e+03, 1706., 1.70125513e+03, 1698., 1698., 1698., 1702., 1706., 1706., 1.70587500e+03, 1.70562500e+03, 1706., 1706., 1706., 1706., 1706., 1706., 1.71021423e+03, 1.71496045e+03, 1.71496484e+03, 1715., 1715., 1715., 1.71499011e+03, 1.71136133e+03, 1706., 1706., 1706., 1706., 1706., 1.71146753e+03, 1715., 1.71454175e+03, 1715., 1.71501562e+03, 1715., 1715., 1.71035767e+03, 1.71485889e+03, 1715., 1715., 1.71499988e+03, 1.70715576e+03, 1715., 1715., 1.71169458e+03, 1.71436707e+03, 1.71436707e+03, 1715., 1715., 1715., 1.70712500e+03, 1.71636157e+03, 1.72086096e+03, 1.72073608e+03, 1.71535938e+03, 1.71485938e+03, 1.71485938e+03, 1.71485938e+03, 1.71485938e+03, 1.72005493e+03, 1.72099609e+03, 1721., 1723., 1723., 1.73199561e+03, 1.73198682e+03, 1732., 1732., 1.72748657e+03, 1.72342480e+03, 1723., 1723., 1.72300012e+03, 1723., 1723., 1.72296875e+03, 1.72196875e+03, 1723., 1723., 1.71771606e+03, 1715., 1.71500024e+03, 1715., 1715., 1715., 1715., 1715., 1.71703516e+03, 1.72249023e+03, 1.71849023e+03, 1.72249023e+03, 1723., 1723., 1723., 1723., 1.72299805e+03, 1723., 1723., 1.72300110e+03, 1.73073828e+03, 1.73191602e+03, 1.72975110e+03, 1723., 1732., 1732., 1732., 1732., 1732., 1732., 1732., 1732., 1732., 1732., 1.72525439e+03, 1.73106396e+03, 1.73199878e+03, 1732., 1732., 1732., 1732., 1732., 1.73214075e+03, 1732., 1732., 1.72853625e+03, 1.72307031e+03, 1723., 1723., 1723., 1.71575488e+03, 1723., 1.72300220e+03, 1.72765283e+03, 1.72795166e+03, 1732., 1732., 1732., 1732., 1732., 1.74085938e+03, 1.74085938e+03, 1.74085938e+03, 1.74085938e+03, 1.74085938e+03, 1.74085938e+03, 1.74085938e+03, 1.74085938e+03, 1.74086182e+03, 1.74085938e+03, 1.74085938e+03, 1.74085938e+03, 1.74100439e+03, 1.74085938e+03, 1.74085938e+03, 1.74085938e+03, 1.74085938e+03, 1741., 1741., 1741., 1741.,
       1706., 1706., 1715., 1715., 1715., 1715., 1715., 1715., 1715., 1715., 1.70635388e+03, 1706., 1.70600220e+03, 1706., 1706., 1706., 1698., 1698., 1698., 1.69814490e+03, 1.69801575e+03, 1.69801575e+03, 1698., 1698., 1.70231165e+03, 1706., 1706., 1.70137048e+03, 1.70136755e+03, 1.69830603e+03, 1.69825781e+03, 1698., 1706., 1706., 1706., 1706., 1706., 1706., 1706., 1706., 1706., 1706., 1.70628174e+03, 1706., 1.70596680e+03, 1706., 1.71496265e+03, 1.71099878e+03, 1706., 1.70600500e+03, 1706., 1.70600073e+03, 1715., 1.70600012e+03, 1706., 1.70587500e+03, 1706., 1.70562439e+03, 1.71454224e+03, 1706., 1706., 1.70596875e+03, 1.69850195e+03, 1706., 1706., 1.70825000e+03, 1715., 1715., 1715., 1717., 1715., 1715., 1715., 1.71041211e+03, 1706., 1.70969690e+03, 1706., 1706., 1706., 1.70149780e+03, 1.70047290e+03, 1706., 1.70865552e+03, 1706., 1.70600122e+03, 1.70754382e+03, 1.70979602e+03, 1715., 1715., 1715., 1.71443750e+03, 1.70603516e+03, 1706., 1706., 1706., 1706., 1706., 1.70198438e+03, 1.70185913e+03, 1706., 1706., 1706., 1706., 1706., 1706., 1706., 1706., 1706., 1706., 1706., 1.71499561e+03, 1715., 1.71496484e+03, 1.71495801e+03, 1715., 1715., 1.71137463e+03, 1706., 1706., 1706., 1706., 1706., 1706., 1706., 1.70658008e+03, 1706., 1.71471875e+03, 1715., 1.70658032e+03, 1.70656274e+03, 1.70600024e+03, 1.70656689e+03, 1715., 1715., 1.71499976e+03, 1.71422583e+03, 1715., 1715., 1.71390942e+03, 1.71443677e+03, 1.71443677e+03, 1715., 1.70712939e+03, 1.71227771e+03, 1706., 1.71485938e+03, 1.71635938e+03, 1.71637695e+03, 1.71485938e+03, 1.71485938e+03, 1.71635938e+03, 1.71485938e+03, 1.71485938e+03, 1.71632251e+03, 1.72099609e+03, 1.72049463e+03, 1721., 1723., 1723., 1723., 1732., 1732., 1.72462122e+03, 1.72314075e+03, 1723., 1.72328137e+03, 1.72328149e+03, 1723., 1723., 1.71788623e+03, 1.71796875e+03, 1723., 1719., 1.71557056e+03, 1715., 1715., 1.71499780e+03, 1715., 1715., 1715., 1715., 1715., 1.71503516e+03, 1.71503516e+03, 1.72249805e+03, 1.72299805e+03, 1723., 1723., 1723., 1723., 1723., 1719., 1.71963745e+03, 1.72236987e+03, 1732., 1.72978638e+03, 1723., 1.72312268e+03, 1732., 1732., 1732., 1732., 1732., 1732., 1732., 1732., 1.73199951e+03, 1.72525439e+03, 1.72525439e+03, 1.73060706e+03, 1.73192578e+03, 1732., 1732., 1732., 1732., 1732., 1732., 1.72862476e+03, 1723., 1723., 1.72299976e+03, 1723., 1.72299219e+03, 1715., 1.71899219e+03, 1723., 1723., 1723., 1732., 1732., 1732., 1732., 1732., 1.74085938e+03, 1.74085938e+03, 1.74085938e+03, 1.74085938e+03, 1.74085938e+03, 1.74085938e+03, 1.74086401e+03, 1.74144653e+03, 1.74781140e+03, 1.74086377e+03, 1.74085938e+03, 1.74085938e+03, 1.74086377e+03, 1.74085938e+03, 1.74085938e+03, 1.74085938e+03, 1.74085938e+03, 1741., 1741., 1741., 1.74089453e+03,
       1706., 1706., 1.71499976e+03, 1715., 1715., 1715., 1715., 1715., 1715., 1715., 1.71499951e+03, 1.70698694e+03, 1.70607251e+03, 1706., 1706., 1.69896729e+03, 1698., 1698., 1698., 1698., 1698., 1698., 1698., 1698., 1.69826074e+03, 1706., 1706., 1.70546484e+03, 1.70550000e+03, 1.70550000e+03, 1.70045312e+03, 1.70445312e+03, 1706., 1706., 1706., 1706., 1706., 1706., 1706., 1706., 1706., 1706., 1706., 1706., 1.70596680e+03, 1706., 1.70628772e+03, 1.70600635e+03, 1706., 1706., 1706., 1.70662183e+03, 1715., 1706., 1706., 1.70556250e+03, 1706., 1.70152258e+03, 1.70884229e+03, 1706., 1.70571875e+03, 1.70596826e+03, 1.70050195e+03, 1706., 1706., 1.70839502e+03, 1.71495410e+03, 1.71008472e+03, 1715., 1715., 1715., 1715., 1715., 1.71040991e+03, 1706., 1.71012769e+03, 1.70825000e+03, 1.70825000e+03, 1.70828528e+03, 1706., 1.70147290e+03, 1706., 1.70979382e+03, 1.70600012e+03, 1.70745581e+03, 1.70810632e+03, 1.71035852e+03, 1715., 1715., 1.71050000e+03, 1.70993713e+03, 1706., 1706., 1706., 1706., 1706., 1706., 1706., 1.70162476e+03, 1706., 1706., 1706., 1706., 1706., 1706., 1706., 1706., 1706., 1.70600049e+03, 1706., 1715., 1715., 1.71496484e+03, 1.71046021e+03, 1715., 1.72085938e+03, 1.71134375e+03, 1706., 1706., 1706., 1.70600012e+03, 1706., 1706., 1706., 1706., 1706., 1.70658008e+03, 1715., 1.70656250e+03, 1.70656250e+03, 1.70656250e+03, 1.71446936e+03, 1715., 1715., 1.71499988e+03, 1.70600989e+03, 1.71492896e+03, 1.71394458e+03, 1.70601428e+03, 1706., 1.70600879e+03, 1.70826428e+03, 1706., 1.71050000e+03, 1706., 1.71485938e+03, 1.71485938e+03, 1.71635938e+03, 1.71485938e+03, 1.71535938e+03, 1.72048242e+03, 1.71621509e+03, 1.71485938e+03, 1.71625244e+03, 1.71639307e+03, 1.71600012e+03, 1.71639270e+03, 1.71639099e+03, 1721., 1723., 1.72906860e+03, 1.73199097e+03, 1.72518750e+03, 1.72314075e+03, 1723., 1723., 1723., 1723., 1.71795264e+03, 1.71500781e+03, 1.71500806e+03, 1.71796411e+03, 1.71507056e+03, 1715., 1715., 1715., 1.71049780e+03, 1715., 1.71499780e+03, 1715., 1715., 1715., 1.71516016e+03, 1.71822388e+03, 1.72249805e+03, 1723., 1723., 1723., 1723., 1723., 1723., 1723., 1719., 1719., 1.71899976e+03, 1723., 1.72300049e+03, 1.72749976e+03, 1732., 1732., 1732., 1732., 1732., 1732., 1732., 1.73062683e+03, 1723., 1723., 1723., 1723., 1723., 1732., 1732., 1732., 1732., 1732., 1.72333362e+03, 1.72300769e+03, 1723., 1723., 1.71587476e+03, 1.71585120e+03, 1.71697632e+03, 1715., 1.71899194e+03, 1723., 1723., 1723., 1.72523877e+03, 1732., 1.73185938e+03, 1732., 1732., 1.74085938e+03, 1.74085938e+03, 1.74085938e+03, 1.74085938e+03, 1.74085938e+03, 1.74085938e+03, 1.74311401e+03, 1.74142871e+03, 1.74388257e+03, 1.74086597e+03, 1.74086377e+03, 1.74085938e+03, 1.74781995e+03, 1741., 1.74100708e+03, 1.74085938e+03, 1.74085938e+03, 1741., 1741., 1741., 1.73639343e+03,
       1706., 1706., 1.71499976e+03, 1715., 1715., 1715., 1715., 1715., 1715., 1715., 1.71046436e+03, 1706., 1706., 1.70596826e+03, 1.70196802e+03, 1698., 1.69046875e+03, 1.69350000e+03, 1697., 1698., 1698., 1698., 1698., 1.69802454e+03, 1.70346826e+03, 1706., 1706., 1706., 1706., 1706., 1706., 1706., 1706., 1706., 1706., 1706., 1706., 1706., 1706., 1706., 1706., 1706., 1706., 1706., 1.70596680e+03, 1706., 1.71078784e+03, 1.70628784e+03, 1706., 1706., 1706., 1706., 1706., 1706., 1706., 1.69851758e+03, 1.70052246e+03, 1.69850000e+03, 1.70883337e+03, 1706., 1706., 1706., 1.70575708e+03, 1706., 1706., 1.70980347e+03, 1.70980371e+03, 1.70839062e+03, 1.71495496e+03, 1715., 1.71499951e+03, 1.71043567e+03, 1715., 1.70881274e+03, 1706., 1.70825110e+03, 1706., 1706., 1.70825012e+03, 1706., 1.70036450e+03, 1706., 1.70979382e+03, 1.70600012e+03, 1.70601001e+03, 1.70633093e+03, 1.70747351e+03, 1715., 1715., 1715., 1.70856775e+03, 1706., 1706., 1706., 1706., 1706., 1706., 1706., 1706., 1706., 1706., 1706., 1706., 1706., 1.70575000e+03, 1706., 1706., 1706., 1.70825098e+03, 1.70886731e+03, 1715., 1715., 1715., 1.71372656e+03, 1715., 1.72085938e+03, 1.71141528e+03, 1706., 1705., 1705., 1706., 1706., 1706., 1.70295532e+03, 1.70251587e+03, 1.70251782e+03, 1706., 1706., 1706., 1706., 1706., 1.71221509e+03, 1715., 1715., 1715., 1.71499707e+03, 1.71499976e+03, 1.71461035e+03, 1.70603198e+03, 1706., 1706., 1706., 1706., 1706., 1706., 1.71485938e+03, 1.71485938e+03, 1.71485938e+03, 1.71485938e+03, 1.71492969e+03, 1.71485938e+03, 1.71485938e+03, 1.71485938e+03, 1.71485938e+03, 1715., 1715., 1715., 1715., 1.71639099e+03, 1.72249219e+03, 1723., 1723., 1723., 1723., 1723., 1723., 1723., 1.71890601e+03, 1715., 1715., 1715., 1.71500781e+03, 1715., 1715., 1715., 1715., 1715., 1715., 1715., 1715., 1715., 1717., 1717., 1.71747278e+03, 1.72197510e+03, 1.72804797e+03, 1723., 1723., 1723., 1723., 1723., 1723., 1.71899976e+03, 1.71507690e+03, 1.71900098e+03, 1723., 1.72300049e+03, 1.72300488e+03, 1.72558142e+03, 1.73073413e+03, 1732., 1732., 1.73185913e+03, 1723., 1.72300439e+03, 1723., 1723., 1723., 1723., 1723., 1723., 1.73136719e+03, 1.73192969e+03, 1732., 1732., 1732., 1732., 1732., 1723., 1723., 1723., 1723., 1723., 1.71503516e+03, 1723., 1723., 1723., 1723., 1.72412610e+03, 1732., 1732., 1732., 1732., 1.74085938e+03, 1.74085938e+03, 1.74085938e+03, 1.74085938e+03, 1.74085938e+03, 1.74142407e+03, 1.74817847e+03, 1.74837329e+03, 1.74837390e+03, 1.74369812e+03, 1.74085938e+03, 1.74085938e+03, 1.74845312e+03, 1.74780835e+03, 1.74578674e+03, 1.74086426e+03, 1.74085938e+03, 1741., 1741., 1741., 1.73287256e+03,
       1.70568750e+03, 1.70593750e+03, 1706., 1715., 1715., 1715., 1715., 1715., 1715., 1715., 1.70658240e+03, 1706., 1706., 1.69858887e+03, 1.70057324e+03, 1698., 1690., 1.69008594e+03, 1.69007483e+03, 1.69050000e+03, 1.69196875e+03, 1692., 1698., 1698., 1.69800781e+03, 1.70587500e+03, 1.70146875e+03, 1.70537500e+03, 1706., 1706., 1706., 1.70446875e+03, 1706., 1706., 1706., 1706., 1706., 1706., 1.69897144e+03, 1706., 1.70599805e+03, 1.69882129e+03, 1706., 1.70596680e+03, 1.70482617e+03, 1.70596680e+03, 1.70628333e+03, 1.70600659e+03, 1.70600024e+03, 1.70600024e+03, 1706., 1706., 1706., 1706., 1706., 1698., 1.69850000e+03, 1.69850000e+03, 1.71334229e+03, 1.70656250e+03, 1706., 1706., 1706., 1.70825000e+03, 1706., 1.70979712e+03, 1.70980396e+03, 1.70825000e+03, 1.71043677e+03, 1.70987207e+03, 1.71043433e+03, 1.70600439e+03, 1.71497974e+03, 1706., 1.70598193e+03, 1706., 1.70599805e+03, 1.70600012e+03, 1706., 1706., 1.70000012e+03, 1706., 1.70975867e+03, 1706., 1.70601428e+03, 1.70600110e+03, 1.70600989e+03, 1.71499951e+03, 1715., 1.70663831e+03, 1706., 1706., 1706., 1706., 1706., 1706., 1706., 1706., 1.70574805e+03, 1.70575000e+03, 1.70575000e+03, 1706., 1.70562305e+03, 1.70561914e+03, 1.70555627e+03, 1.70455273e+03, 1.70568750e+03, 1706., 1.71334973e+03, 1.70886707e+03, 1715., 1715., 1715., 1.71496606e+03, 1715., 1.72193701e+03, 1.71145044e+03, 1706., 1.70499927e+03, 1.70497095e+03, 1.71050000e+03, 1.70628125e+03, 1706., 1.70283057e+03, 1.70078003e+03, 1.70590503e+03, 1706., 1706., 1706., 1706., 1706., 1.70656250e+03, 1.71445679e+03, 1715., 1.71450073e+03, 1706., 1706., 1706., 1706., 1706., 1706., 1706., 1706., 1706., 1706., 1.71485938e+03, 1.71485938e+03, 1.71485938e+03, 1.71485938e+03, 1.72060754e+03, 1.71485938e+03, 1.71485938e+03, 1.71485938e+03, 1.71485938e+03, 1715., 1.71218750e+03, 1715., 1.71443750e+03, 1715., 1.72000012e+03, 1723., 1723., 1723., 1723., 1723., 1723., 1723., 1.71550989e+03, 1715., 1715., 1715., 1715., 1715., 1715., 1715., 1715., 1715., 1715., 1715., 1715., 1715., 1715., 1.71698938e+03, 1.71700500e+03, 1723., 1723., 1.72298438e+03, 1723., 1723., 1723., 1723., 1723., 1.71898438e+03, 1.71500647e+03, 1.71754663e+03, 1.71799976e+03, 1.71899976e+03, 1723., 1.72299976e+03, 1723., 1723., 1.72300439e+03, 1723., 1723., 1.72299951e+03, 1.72356201e+03, 1723., 1.72281177e+03, 1.71881165e+03, 1723., 1723., 1.73122656e+03, 1.73122656e+03, 1732., 1732., 1732., 1732., 1732., 1732., 1.72960913e+03, 1723., 1723., 1723., 1.72299976e+03, 1723., 1723., 1723., 1723., 1723., 1.72522119e+03, 1.72524756e+03, 1732., 1732., 1.74085938e+03, 1.74085938e+03, 1.74085938e+03, 1.74085938e+03, 1.74085938e+03, 1.74085938e+03, 1.74856567e+03, 1.74984998e+03, 1.74985938e+03, 1.74985938e+03, 1.74473462e+03, 1.74086157e+03, 1.74985938e+03, 1.74928711e+03, 1.74985034e+03, 1.74198926e+03, 1.74536487e+03, 1741., 1741., 1.73864343e+03, 1.73257153e+03,
       1.70491418e+03, 1.70599805e+03, 1706., 1715., 1715., 1715., 1715., 1715., 1715., 1715., 1706., 1706., 1.70596484e+03, 1.69850781e+03, 1698., 1698., 1690., 1690., 1690., 1.69033594e+03, 1.69027783e+03, 1.69584375e+03, 1698., 1698., 1.70184363e+03, 1706., 1706., 1706., 1706., 1706., 1706., 1.70446875e+03, 1706., 1706., 1706., 1706., 1706., 1.70598438e+03, 1.69806299e+03, 1.70598242e+03, 1.69881335e+03, 1.69800049e+03, 1.70599805e+03, 1.70482617e+03, 1.70282129e+03, 1.70384180e+03, 1.70600049e+03, 1.70628174e+03, 1.70600049e+03, 1706., 1706., 1706., 1706., 1706., 1.70553040e+03, 1698., 1698., 1698., 1.70656250e+03, 1706., 1706., 1706., 1706., 1706., 1706., 1.70825000e+03, 1.70825000e+03, 1706., 1.70846313e+03, 1706., 1706., 1706., 1.71466321e+03, 1706., 1.70599805e+03, 1706., 1706., 1.70939819e+03, 1.70825122e+03, 1706., 1.70112451e+03, 1706., 1.70975867e+03, 1706., 1.70600989e+03, 1706., 1706., 1.70824915e+03, 1715., 1.70656360e+03, 1706., 1706., 1706., 1706., 1706., 1706., 1706., 1706., 1706., 1706., 1706., 1706., 1706., 1706., 1706., 1706., 1706., 1.70997314e+03, 1715., 1715., 1715., 1715., 1715., 1.71386609e+03, 1715., 1.71500012e+03, 1.71387256e+03, 1.70600012e+03, 1.70600012e+03, 1.70600012e+03, 1.71159888e+03, 1.71387476e+03, 1.70628125e+03, 1.70499902e+03, 1.70190503e+03, 1706., 1706., 1706., 1706., 1706., 1706., 1706., 1.70995630e+03, 1715., 1.71492285e+03, 1706., 1.70600110e+03, 1706., 1.71275110e+03, 1706., 1706., 1706., 1706., 1.70599487e+03, 1.70574438e+03, 1.71485938e+03, 1.71231470e+03, 1.71485938e+03, 1.71485938e+03, 1.72086096e+03, 1.72060974e+03, 1.71527856e+03, 1.71510938e+03, 1.71510950e+03, 1715., 1715., 1715., 1.71443750e+03, 1715., 1715., 1.72250000e+03, 1723., 1723., 1723., 1.71926172e+03, 1723., 1.72099976e+03, 1715., 1715., 1715., 1715., 1715., 1715., 1715., 1715., 1715., 1715., 1715., 1715., 1715., 1715., 1715., 1.71528613e+03, 1.71500098e+03, 1723., 1.72184485e+03, 1.72109778e+03, 1723., 1.72525452e+03, 1.72357581e+03, 1.72751331e+03, 1.72893628e+03, 1723., 1719., 1.72372070e+03, 1723., 1.72300110e+03, 1723., 1723., 1723., 1723., 1723., 1723., 1.71500391e+03, 1715., 1715., 1.71500391e+03, 1715., 1715., 1.71831006e+03, 1723., 1.73119763e+03, 1.73122632e+03, 1.73133179e+03, 1.73199976e+03, 1732., 1732., 1732., 1732., 1.72454663e+03, 1723., 1723., 1.72395203e+03, 1723., 1723., 1723., 1723., 1723., 1.72522998e+03, 1732., 1.72975000e+03, 1732., 1732., 1.74085938e+03, 1.74085938e+03, 1.74085938e+03, 1.74085938e+03, 1.74085938e+03, 1.74085938e+03, 1.74085938e+03, 1.74904114e+03, 1.74985938e+03, 1.74086487e+03, 1.74339893e+03, 1.74085938e+03, 1.74227405e+03, 1.74473523e+03, 1.74985938e+03, 1.74985059e+03, 1.74977112e+03, 1.74789612e+03, 1741., 1741., 1.74089343e+03,
       1698., 1.70491797e+03, 1.70599805e+03, 1.70839124e+03, 1715., 1715., 1715., 1715., 1715., 1.70694434e+03, 1706., 1706., 1.70583936e+03, 1698., 1698., 1698., 1.69032251e+03, 1.69146558e+03, 1698., 1698., 1698., 1698., 1698., 1.70137158e+03, 1706., 1706., 1706., 1706., 1706., 1706., 1706., 1.69831348e+03, 1.70446582e+03, 1.70549805e+03, 1.69896484e+03, 1706., 1706., 1.70598438e+03, 1.69806274e+03, 1.70598438e+03, 1.70397852e+03, 1.69850818e+03, 1706., 1.70594727e+03, 1.70494727e+03, 1.70396680e+03, 1706., 1706., 1706., 1706., 1706., 1.70393750e+03, 1706., 1706., 1.69801868e+03, 1698., 1698., 1698., 1706., 1706., 1706., 1706., 1706., 1706., 1706., 1706., 1706., 1.70599902e+03, 1706., 1706., 1706., 1706., 1.71496191e+03, 1706., 1706., 1.70720081e+03, 1.70825439e+03, 1.71397827e+03, 1.70975952e+03, 1.70825012e+03, 1702., 1.70825891e+03, 1.71025110e+03, 1706., 1.70713489e+03, 1.70657239e+03, 1.70657239e+03, 1715., 1715., 1.71046411e+03, 1.70693286e+03, 1.70937451e+03, 1.70693286e+03, 1706., 1706., 1706., 1706., 1706., 1706., 1706., 1706., 1.71053516e+03, 1706., 1706., 1706., 1706., 1.70825000e+03, 1.71497803e+03, 1715., 1715., 1715., 1715., 1715., 1.71274121e+03, 1715., 1715., 1.71159558e+03, 1706., 1.71050000e+03, 1706., 1.71135266e+03, 1.71498218e+03, 1.71078125e+03, 1.70238916e+03, 1.69988928e+03, 1706., 1706., 1706., 1706., 1706., 1706., 1706., 1.70656250e+03, 1.71492749e+03, 1.71460645e+03, 1.70600110e+03, 1706., 1706., 1.71390259e+03, 1706., 1706., 1706., 1706., 1706., 1706., 1.71485938e+03, 1.71485938e+03, 1.71498438e+03, 1.71487695e+03, 1.72060974e+03, 1.71510742e+03, 1.71575317e+03, 1.71562817e+03, 1.71485938e+03, 1715., 1715., 1715., 1715., 1715., 1715., 1.72248291e+03, 1.72235559e+03, 1.72095166e+03, 1723., 1.71500781e+03, 1.72088708e+03, 1715., 1715., 1715., 1715., 1715., 1715., 1715., 1715., 1715., 1715., 1715., 1715., 1715., 1715., 1.71500220e+03, 1.71500098e+03, 1.71501038e+03, 1.71500098e+03, 1.72750000e+03, 1.71931348e+03, 1.71706653e+03, 1723., 1.72532483e+03, 1.72357581e+03, 1.72301331e+03, 1723., 1723., 1723., 1.72315601e+03, 1.71793530e+03, 1723., 1.71790295e+03, 1.72191956e+03, 1723., 1.72192163e+03, 1723., 1.71726196e+03, 1.71500391e+03, 1715., 1715., 1715., 1715., 1715., 1.71700403e+03, 1723., 1723., 1723., 1723., 1723., 1.73199561e+03, 1.73198682e+03, 1.72974976e+03, 1732., 1.72307251e+03, 1723., 1723., 1723., 1.71985022e+03, 1723., 1723., 1723., 1723., 1.72975000e+03, 1732., 1.72524744e+03, 1732., 1732., 1.74085938e+03, 1.74085938e+03, 1.74085938e+03, 1.74085938e+03, 1.74085938e+03, 1.74085938e+03, 1.74085938e+03, 1.74087720e+03, 1.74087720e+03, 1.74085938e+03, 1.74085938e+03, 1.74085938e+03, 1.74085938e+03, 1.74438940e+03, 1.74888269e+03, 1.74198438e+03, 1.74085938e+03, 1741., 1741., 1741., 1.74092969e+03,
       1702., 1.70493420e+03, 1.70499695e+03, 1706., 1.70614062e+03, 1.71321204e+03, 1.71499658e+03, 1.71499231e+03, 1715., 1.70600879e+03, 1706., 1706., 1.70596484e+03, 1.69800781e+03, 1698., 1698., 1698., 1.69146875e+03, 1698., 1698., 1698., 1698., 1698., 1699., 1.70587183e+03, 1.70587402e+03, 1.70599902e+03, 1706., 1706., 1705., 1.70499805e+03, 1.69831714e+03, 1.70499805e+03, 1.70449805e+03, 1.70475000e+03, 1.70475000e+03, 1.70573438e+03, 1.69819055e+03, 1698., 1.70269617e+03, 1698., 1698., 1.69800012e+03, 1698., 1.69800037e+03, 1.69825183e+03, 1706., 1706., 1706., 1706., 1.69927344e+03, 1.70593750e+03, 1.70393750e+03, 1.70568652e+03, 1.70256128e+03, 1698., 1.70202344e+03, 1.70452991e+03, 1.71334741e+03, 1.71114380e+03, 1.71114160e+03, 1706., 1706., 1706., 1706., 1706., 1.70598438e+03, 1.70131665e+03, 1.70595166e+03, 1706., 1706., 1.70712500e+03, 1.71467188e+03, 1706., 1.70712939e+03, 1715., 1.71450525e+03, 1715., 1715., 1.70830286e+03, 1706., 1.71046436e+03, 1.71496436e+03, 1706., 1.70712500e+03, 1.70791284e+03, 1.71016309e+03, 1715., 1715., 1.71499927e+03, 1.71499951e+03, 1715., 1.71499072e+03, 1706., 1706., 1706., 1706., 1.71331030e+03, 1706., 1.71050879e+03, 1.71288794e+03, 1.71316846e+03, 1.71279456e+03, 1.71275000e+03, 1706., 1.70825000e+03, 1715., 1715., 1715., 1715., 1715., 1715., 1715., 1.71130872e+03, 1.71118127e+03, 1715., 1.71159436e+03, 1706., 1.71057043e+03, 1.70600012e+03, 1.71078137e+03, 1.71160376e+03, 1706., 1698., 1.69800195e+03, 1.69888928e+03, 1.69992065e+03, 1.70193652e+03, 1.70193640e+03, 1.70599902e+03, 1706., 1.70656250e+03, 1.71333887e+03, 1.71499780e+03, 1.71334070e+03, 1.71331360e+03, 1706., 1706., 1.71388379e+03, 1706., 1.70549902e+03, 1.70549976e+03, 1.70549878e+03, 1.70599902e+03, 1706., 1.71485938e+03, 1.71485938e+03, 1.71485938e+03, 1.71485938e+03, 1.71910974e+03, 1.71498438e+03, 1.71537817e+03, 1.71537805e+03, 1.71575610e+03, 1715., 1715., 1715., 1.71436719e+03, 1.71492969e+03, 1715., 1715., 1715., 1715., 1.71900391e+03, 1715., 1715., 1715., 1.70642859e+03, 1.70642639e+03, 1.70628577e+03, 1.70628564e+03, 1.71386572e+03, 1715., 1715., 1715., 1.71527441e+03, 1715., 1.71505566e+03, 1.72934265e+03, 1732., 1732., 1.71869507e+03, 1732., 1.72990601e+03, 1.73192749e+03, 1.72298389e+03, 1.71700110e+03, 1723., 1.72982483e+03, 1.73032690e+03, 1.72300891e+03, 1723., 1723., 1723., 1.72318213e+03, 1.71893750e+03, 1723., 1.71700049e+03, 1.72187476e+03, 1.72284277e+03, 1.72242188e+03, 1.72176538e+03, 1.71700391e+03, 1.71500391e+03, 1715., 1715., 1715., 1715., 1715., 1.72100403e+03, 1.72179492e+03, 1723., 1723., 1723., 1723., 1.72302051e+03, 1.72425098e+03, 1.72848413e+03, 1.72974976e+03, 1723., 1.72814050e+03, 1.72356689e+03, 1723., 1.71986670e+03, 1.72299976e+03, 1.72180981e+03, 1.72735938e+03, 1.72476538e+03, 1723., 1.72305273e+03, 1723., 1723., 1723., 1.73403784e+03, 1.73635815e+03, 1.74085938e+03, 1.74085938e+03, 1.74085938e+03, 1.74085938e+03, 1.74085938e+03, 1.74123315e+03, 1.74685925e+03, 1.74085938e+03, 1.74122607e+03, 1.74085938e+03, 1.74121729e+03, 1.74535938e+03, 1.74891577e+03, 1.74201953e+03, 1.74085938e+03, 1741., 1741., 1741., 1741.,
       1698., 1.70292981e+03, 1698., 1.70599670e+03, 1.70599695e+03, 1.70599805e+03, 1706., 1.71050879e+03, 1.71050879e+03, 1706., 1706., 1.70376074e+03, 1698., 1698., 1698., 1698., 1698., 1.69196851e+03, 1698., 1698., 1698., 1698., 1698., 1.70587500e+03, 1706., 1706., 1706., 1706., 1706., 1706., 1.70599805e+03, 1.70031738e+03, 1.70485645e+03, 1705., 1705., 1706., 1706., 1.70473389e+03, 1.69806250e+03, 1.70273193e+03, 1.70268884e+03, 1.69800012e+03, 1.70212512e+03, 1698., 1.69800012e+03, 1.69800037e+03, 1.70599805e+03, 1706., 1.70096826e+03, 1.69834375e+03, 1.69800134e+03, 1.69950330e+03, 1.69800012e+03, 1698., 1.69952673e+03, 1698., 1702., 1.70358691e+03, 1.71468359e+03, 1.71471301e+03, 1.71228711e+03, 1.70665039e+03, 1706., 1706., 1706., 1706., 1.70598340e+03, 1.70000012e+03, 1706., 1.70607031e+03, 1706., 1.70719971e+03, 1.71467249e+03, 1706., 1.70769299e+03, 1715., 1.71457556e+03, 1.71004065e+03, 1.71007593e+03, 1706., 1706., 1706., 1706., 1706., 1706., 1706., 1.70656250e+03, 1715., 1715., 1.71498621e+03, 1.71030786e+03, 1715., 1.70686243e+03, 1706., 1706., 1706., 1706., 1.71080945e+03, 1706., 1.71052637e+03, 1.71331250e+03, 1.71330908e+03, 1.71277637e+03, 1.71057910e+03, 1.71050000e+03, 1.71050000e+03, 1715., 1715., 1715., 1.71499951e+03, 1715., 1715., 1715., 1.70666846e+03, 1.70603528e+03, 1.71160425e+03, 1.71088684e+03, 1706., 1.70599805e+03, 1.70598242e+03, 1706., 1.71081653e+03, 1706., 1698., 1698., 1.69825830e+03, 1.69993738e+03, 1706., 1.69993640e+03, 1706., 1706., 1706., 1.70996460e+03, 1.71468103e+03, 1.70905164e+03, 1.70656250e+03, 1706., 1706., 1706., 1706., 1706., 1.70449219e+03, 1.70549475e+03, 1706., 1706., 1.71507227e+03, 1.71485938e+03, 1.71510974e+03, 1.71510974e+03, 1.72287012e+03, 1.71510974e+03, 1.72187415e+03, 1.71550525e+03, 1.72126929e+03, 1.71501562e+03, 1.71436169e+03, 1.71436609e+03, 1.71436084e+03, 1.71436609e+03, 1.71422546e+03, 1719., 1715., 1715., 1.71900391e+03, 1715., 1715., 1715., 1.71499084e+03, 1.71047327e+03, 1715., 1715., 1715., 1715., 1715., 1.71512598e+03, 1.71939941e+03, 1.71939941e+03, 1.71993127e+03, 1.73171765e+03, 1732., 1732., 1.72095325e+03, 1.72321875e+03, 1.71897412e+03, 1.73049854e+03, 1.72231763e+03, 1715., 1.72298438e+03, 1.72525439e+03, 1732., 1.72301331e+03, 1723., 1723., 1723., 1723., 1.71777808e+03, 1.71777808e+03, 1715., 1.71500049e+03, 1715., 1715., 1715., 1715., 1715., 1715., 1715., 1715., 1.71500391e+03, 1715., 1.72150439e+03, 1.72176367e+03, 1723., 1723., 1723., 1723., 1.72300061e+03, 1.72496436e+03, 1.73199976e+03, 1.73199890e+03, 1.72300513e+03, 1723., 1.72363281e+03, 1.72299976e+03, 1.71509619e+03, 1.71984424e+03, 1715., 1.72419629e+03, 1.72019617e+03, 1.72525696e+03, 1723., 1.72525012e+03, 1.72553577e+03, 1.72666064e+03, 1.73185938e+03, 1.73201758e+03, 1.74085938e+03, 1.74085938e+03, 1.74085938e+03, 1.74085938e+03, 1.74085938e+03, 1.74123315e+03, 1.74085962e+03, 1.74085938e+03, 1.74085938e+03, 1.74085938e+03, 1.74250928e+03, 1.74535938e+03, 1.74891577e+03, 1.74205469e+03, 1.74085938e+03, 1741., 1741., 1741., 1741.,
       1.69805469e+03, 1.70599707e+03, 1698., 1698., 1.69802344e+03, 1698., 1.70180518e+03, 1.70599805e+03, 1.70599902e+03, 1.69800781e+03, 1.69800781e+03, 1698., 1698., 1.69799609e+03, 1.69562036e+03, 1.69000012e+03, 1.69006262e+03, 1.69157141e+03, 1.69396875e+03, 1.69396875e+03, 1698., 1698., 1.69909131e+03, 1706., 1706., 1706., 1706., 1706., 1.70499805e+03, 1.70487305e+03, 1.70435645e+03, 1.69825000e+03, 1.70081738e+03, 1.70499805e+03, 1705., 1705., 1706., 1.70475000e+03, 1.70206250e+03, 1.70598438e+03, 1698., 1698., 1.70200012e+03, 1698., 1698., 1698., 1.69800037e+03, 1.69850049e+03, 1.69875037e+03, 1698., 1698., 1698., 1698., 1698., 1.69851575e+03, 1698., 1698., 1.70583984e+03, 1715., 1.71471875e+03, 1.71457812e+03, 1.71457349e+03, 1706., 1706., 1706., 1706., 1.70172961e+03, 1698., 1.70599854e+03, 1706., 1706., 1706., 1706., 1.70599805e+03, 1.70712500e+03, 1.71471606e+03, 1.70770178e+03, 1.71221948e+03, 1.70768774e+03, 1706., 1.70599731e+03, 1706., 1706., 1706., 1706., 1706., 1706., 1.71471875e+03, 1715., 1706., 1706., 1706., 1706., 1706., 1706., 1.69989404e+03, 1706., 1.70601758e+03, 1706., 1706., 1706., 1.71050000e+03, 1.71050000e+03, 1.71050000e+03, 1706., 1.70599939e+03, 1.71199341e+03, 1.71498169e+03, 1.71498242e+03, 1.71523560e+03, 1.71498242e+03, 1715., 1715., 1.71499890e+03, 1.71117249e+03, 1.71161340e+03, 1.70610559e+03, 1706., 1.70499805e+03, 1.70248181e+03, 1.70248230e+03, 1.70398438e+03, 1704., 1698., 1698., 1698., 1.69993738e+03, 1706., 1706., 1706., 1706., 1706., 1.70680054e+03, 1.70905054e+03, 1.70658081e+03, 1706., 1706., 1.70599585e+03, 1706., 1706., 1.70549390e+03, 1.70449390e+03, 1706., 1706., 1.71415186e+03, 1.72287500e+03, 1.71486060e+03, 1.72287500e+03, 1.72137500e+03, 1.72287500e+03, 1.71487695e+03, 1.71729932e+03, 1.71485938e+03, 1.71500537e+03, 1715., 1715., 1715., 1715., 1715., 1715., 1.71900403e+03, 1.71500391e+03, 1715., 1715., 1715., 1715., 1715., 1.70809912e+03, 1.70824084e+03, 1715., 1715., 1715., 1715., 1.71500098e+03, 1.71500098e+03, 1723., 1.72099756e+03, 1723., 1.72589050e+03, 1732., 1732., 1.72546021e+03, 1732., 1.72123486e+03, 1.73050525e+03, 1.71625098e+03, 1715., 1.71744153e+03, 1723., 1723., 1723., 1723., 1.72293555e+03, 1723., 1723., 1.72293530e+03, 1.72293555e+03, 1.71500049e+03, 1.72129443e+03, 1.71500049e+03, 1.71500342e+03, 1715., 1715., 1.71900391e+03, 1715., 1.71900391e+03, 1715., 1.71900488e+03, 1.71900415e+03, 1.72101196e+03, 1.72151367e+03, 1.72287500e+03, 1723., 1723., 1723., 1723., 1.72480457e+03, 1.72974890e+03, 1732., 1.72973242e+03, 1.72969543e+03, 1.72941467e+03, 1.72300439e+03, 1.72300439e+03, 1723., 1.72421143e+03, 1.72721875e+03, 1.72493359e+03, 1.72721875e+03, 1.72300024e+03, 1.72747144e+03, 1.72505334e+03, 1.72523022e+03, 1.73185938e+03, 1.73201758e+03, 1.74085938e+03, 1.74085938e+03, 1.74085938e+03, 1.74085938e+03, 1.74085938e+03, 1.74085938e+03, 1.74085938e+03, 1.74085938e+03, 1.74085938e+03, 1.74085938e+03, 1.74085938e+03, 1.74085938e+03, 1.74085938e+03, 1.74085938e+03, 1.74085938e+03, 1741., 1741., 1741., 1741.,
       1698., 1.70237109e+03, 1698., 1698., 1698., 1698., 1698., 1.69825781e+03, 1.70593408e+03, 1702., 1698., 1698., 1.69781201e+03, 1698., 1698., 1.69775000e+03, 1.69762476e+03, 1698., 1698., 1698., 1698., 1.70171851e+03, 1.69959131e+03, 1706., 1706., 1706., 1.70587207e+03, 1706., 1698., 1.69806299e+03, 1.70497339e+03, 1698., 1.69881689e+03, 1.70499976e+03, 1706., 1706., 1706., 1706., 1.70471619e+03, 1706., 1.69862500e+03, 1.69812512e+03, 1.69862512e+03, 1698., 1698., 1698., 1698., 1698., 1.69850000e+03, 1698., 1698., 1698., 1698., 1698., 1698., 1698., 1698., 1.69958606e+03, 1.71228491e+03, 1.70778430e+03, 1.70778711e+03, 1.70778418e+03, 1706., 1.70607031e+03, 1706., 1706., 1706., 1698., 1706., 1706., 1706., 1706., 1706., 1704., 1706., 1.71229004e+03, 1.70712500e+03, 1.70715137e+03, 1706., 1.70599951e+03, 1.69852344e+03, 1706., 1.70571814e+03, 1.70571814e+03, 1706., 1.70575000e+03, 1706., 1.71451147e+03, 1.71497754e+03, 1706., 1706., 1706., 1.70599219e+03, 1.70192920e+03, 1.69989392e+03, 1698., 1.69825000e+03, 1706., 1706., 1706., 1706., 1706., 1706., 1706., 1.71050989e+03, 1.70712830e+03, 1715., 1.71500220e+03, 1.71499951e+03, 1.71498169e+03, 1.71499951e+03, 1715., 1715., 1.71387500e+03, 1.71060559e+03, 1.71161340e+03, 1.71060559e+03, 1706., 1.70298242e+03, 1.69846887e+03, 1.69825012e+03, 1.70248230e+03, 1.70348425e+03, 1698., 1698., 1698., 1.69842175e+03, 1706., 1706., 1706., 1706., 1706., 1.70679175e+03, 1.70905054e+03, 1.70658081e+03, 1706., 1706., 1.69970483e+03, 1706., 1706., 1.70208618e+03, 1.70201575e+03, 1706., 1706., 1.71443750e+03, 1.72287500e+03, 1.72237500e+03, 1.72287500e+03, 1.72137500e+03, 1.72287500e+03, 1.71501416e+03, 1.71511841e+03, 1.71487695e+03, 1.71687695e+03, 1.71939795e+03, 1.71445276e+03, 1.71914795e+03, 1715., 1715., 1715., 1.71500012e+03, 1715., 1715., 1715., 1715., 1715., 1715., 1.70667236e+03, 1.71498853e+03, 1715., 1715., 1715., 1715., 1.71500098e+03, 1.71930225e+03, 1723., 1723., 1.73199878e+03, 1732., 1732., 1732., 1732., 1.72243750e+03, 1.72211865e+03, 1732., 1.71660132e+03, 1715., 1.71537512e+03, 1723., 1723., 1.72290552e+03, 1.72293750e+03, 1.71638318e+03, 1.71538354e+03, 1.71893652e+03, 1715., 1715., 1715., 1715., 1715., 1715., 1715., 1715., 1.72100403e+03, 1715., 1.72229614e+03, 1715., 1.72129614e+03, 1.72100024e+03, 1.72104321e+03, 1.71900098e+03, 1.72287500e+03, 1723., 1723., 1723., 1723., 1723., 1.72750000e+03, 1.72975000e+03, 1.72750439e+03, 1.72356250e+03, 1723., 1.72299976e+03, 1723., 1723., 1.72300220e+03, 1.72421289e+03, 1.72946875e+03, 1732., 1.72300293e+03, 1.73198242e+03, 1.72834399e+03, 1732., 1.73191260e+03, 1.73471594e+03, 1.74085938e+03, 1.74085938e+03, 1.74085938e+03, 1.74085938e+03, 1.74085938e+03, 1.74085938e+03, 1.74085938e+03, 1.74085938e+03, 1.74085938e+03, 1.74085938e+03, 1.74085938e+03, 1.74085938e+03, 1.74085938e+03, 1.74092969e+03, 1.74085938e+03, 1741., 1741., 1741., 1741.,
       1698., 1698., 1698., 1698., 1698., 1698., 1698., 1698., 1.70599707e+03, 1.70025012e+03, 1698., 1698., 1698., 1698., 1698., 1698., 1698., 1698., 1698., 1698., 1.69900049e+03, 1.70159375e+03, 1.69901611e+03, 1.70134338e+03, 1706., 1.70534082e+03, 1.70533252e+03, 1706., 1698., 1.69800049e+03, 1.70031689e+03, 1.69825000e+03, 1.70081714e+03, 1.70425000e+03, 1.70468750e+03, 1.70475000e+03, 1706., 1706., 1.70212500e+03, 1.70470068e+03, 1698., 1698., 1698., 1698., 1.69799902e+03, 1698., 1698., 1698., 1698., 1698., 1694., 1698., 1698., 1698., 1698., 1698., 1698., 1.69806250e+03, 1.70778491e+03, 1.70719531e+03, 1.70778479e+03, 1.70778479e+03, 1706., 1.70607031e+03, 1.70607031e+03, 1706., 1706., 1.70257629e+03, 1706., 1706., 1706., 1.71057031e+03, 1706., 1706., 1706., 1.71274927e+03, 1.71050000e+03, 1.71050879e+03, 1706., 1706., 1.70599243e+03, 1706., 1.70571704e+03, 1.70556567e+03, 1.70571826e+03, 1.70556543e+03, 1.70556580e+03, 1706., 1.70881360e+03, 1706., 1706., 1.70599219e+03, 1.69826562e+03, 1.69989062e+03, 1.69989392e+03, 1698., 1698., 1706., 1706., 1706., 1706., 1.71080762e+03, 1706., 1706., 1706., 1706., 1.70712830e+03, 1.70825244e+03, 1.71275244e+03, 1706., 1.71240979e+03, 1.71131677e+03, 1.71162451e+03, 1.70666821e+03, 1.70603516e+03, 1.71062756e+03, 1.70603528e+03, 1706., 1.70299805e+03, 1.70449805e+03, 1.70216907e+03, 1.70349805e+03, 1704., 1698., 1698., 1698., 1.69801025e+03, 1702., 1.70199902e+03, 1.70096777e+03, 1.70096387e+03, 1706., 1.70656250e+03, 1.70663293e+03, 1.70656262e+03, 1706., 1706., 1.70574390e+03, 1706., 1706., 1.70549976e+03, 1.70424292e+03, 1706., 1.70600012e+03, 1.71412109e+03, 1.72287500e+03, 1.71500977e+03, 1.71508899e+03, 1.71498438e+03, 1.71499219e+03, 1.71498669e+03, 1.71485938e+03, 1.71485938e+03, 1.71485938e+03, 1.71512695e+03, 1.71499976e+03, 1.71500195e+03, 1.71914258e+03, 1715., 1715., 1719., 1715., 1715., 1715., 1715., 1715., 1715., 1.70603955e+03, 1.70992603e+03, 1715., 1715., 1.71499988e+03, 1.71442822e+03, 1.71903516e+03, 1.72203870e+03, 1723., 1.72205420e+03, 1732., 1732., 1732., 1732., 1.73171814e+03, 1.72243750e+03, 1.71731750e+03, 1.73164844e+03, 1.71503125e+03, 1715., 1715., 1715., 1723., 1715., 1.71513684e+03, 1.71512500e+03, 1715., 1715., 1715., 1715., 1715., 1715., 1715., 1715., 1715., 1715., 1.72101392e+03, 1715., 1.72687451e+03, 1.72551196e+03, 1.72137500e+03, 1.72560938e+03, 1.72112500e+03, 1.72125000e+03, 1723., 1723., 1723., 1.72300024e+03, 1723., 1723., 1723., 1.72300439e+03, 1723., 1723., 1.72299487e+03, 1.71929736e+03, 1.72051428e+03, 1.71925793e+03, 1723., 1723., 1.72424683e+03, 1732., 1.72300024e+03, 1.72974890e+03, 1.72410181e+03, 1732., 1.73860938e+03, 1.73494653e+03, 1.74085938e+03, 1.74085938e+03, 1.74085938e+03, 1.74085938e+03, 1.74085938e+03, 1.74085938e+03, 1.73917188e+03, 1.73241968e+03, 1.73227795e+03, 1.73192969e+03, 1.74085938e+03, 1.74085938e+03, 1.74085938e+03, 1.74085938e+03, 1.74085938e+03, 1741., 1741., 1741., 1741. ]
